ncols 410
nrows 31
xllcorner 268086.5625
yllcorner 4793531
cellsize 20.0
NODATA_VALUE -9999
-9999.0 -9999.0 -9999.0 -9999.0 -9999.0 -9999.0 -9999.0 -9999.0 -9999.0 -9999.0 -9999.0 -9999.0 -9999.0 -9999.0 -9999.0 -9999.0 -9999.0 -9999.0 -9999.0 -9999.0 -9999.0 -9999.0 -9999.0 -9999.0 -9999.0 -9999.0 -9999.0 -9999.0 -9999.0 -9999.0 -9999.0 -9999.0 -9999.0 -9999.0 -9999.0 -9999.0 -9999.0 -9999.0 -9999.0 -9999.0 -9999.0 -9999.0 -9999.0 -9999.0 -9999.0 -9999.0 -9999.0 -9999.0 -9999.0 -9999.0 -9999.0 -9999.0 -9999.0 -9999.0 -9999.0 -9999.0 -9999.0 -9999.0 -9999.0 -9999.0 -9999.0 -9999.0 -9999.0 -9999.0 -9999.0 -9999.0 -9999.0 -9999.0 -9999.0 -9999.0 -9999.0 -9999.0 -9999.0 -9999.0 -9999.0 -9999.0 -9999.0 -9999.0 -9999.0 -9999.0 -9999.0 -9999.0 -9999.0 -9999.0 -9999.0 -9999.0 -9999.0 -9999.0 -9999.0 -9999.0 -9999.0 -9999.0 -9999.0 -9999.0 -9999.0 -9999.0 -9999.0 -9999.0 -9999.0 -9999.0 -9999.0 -9999.0 -9999.0 -9999.0 -9999.0 -9999.0 -9999.0 -9999.0 -9999.0 -9999.0 -9999.0 -9999.0 -9999.0 -9999.0 -9999.0 -9999.0 -9999.0 -9999.0 -9999.0 -9999.0 -9999.0 -9999.0 -9999.0 -9999.0 -9999.0 -9999.0 -9999.0 -9999.0 -9999.0 -9999.0 -9999.0 -9999.0 -9999.0 -9999.0 -9999.0 -9999.0 -9999.0 -9999.0 -9999.0 -9999.0 -9999.0 -9999.0 -9999.0 -9999.0 -9999.0 -9999.0 -9999.0 -9999.0 -9999.0 -9999.0 -9999.0 -9999.0 -9999.0 -9999.0 -9999.0 470.0 467.0 459.0 450.0 443.0 438.0 433.0 430.0 425.0 425.0 412.0 408.0 402.0 400.0 401.0 402.0 401.0 400.0 380.0 372.0 366.0 360.0 350.0 348.0 350.0 352.0 354.0 353.0 350.0 342.0 339.0 333.0 330.0 325.0 320.0 320.0 320.0 320.0 321.0 320.0 320.0 316.0 312.0 307.0 302.0 301.0 299.0 299.0 299.0 299.0 299.0 299.0 299.0 299.0 299.0 298.0 298.0 298.0 298.0 299.0 300.0 300.0 299.0 298.0 298.0 298.0 298.0 299.0 299.0 299.0 299.0 298.0 299.0 299.0 299.0 300.0 299.0 299.0 299.0 299.0 299.0 299.0 299.0 299.0 299.0 299.0 299.0 299.0 300.0 300.0 300.0 300.0 300.0 300.0 300.0 305.0 308.0 311.0 315.0 319.0 323.0 326.0 330.0 334.0 337.0 340.0 343.0 346.0 350.0 358.0 365.0 375.0 375.0 375.0 375.0 368.0 361.0 358.0 353.0 345.0 337.0 331.0 325.0 323.0 322.0 321.0 320.0 320.0 319.0 319.0 320.0 321.0 320.0 321.0 321.0 321.0 321.0 321.0 321.0 321.0 321.0 325.0 332.0 336.0 342.0 350.0 351.0 351.0 354.0 350.0 329.0 331.0 321.0 320.0 320.0 320.0 321.0 321.0 321.0 322.0 325.0 329.0 333.0 337.0 339.0 339.0 337.0 339.0 340.0 340.0 338.0 335.0 331.0 329.0 329.0 331.0 334.0 337.0 337.0 337.0 341.0 343.0 347.0 350.0 356.0 361.0 362.0 363.0 367.0 372.0 375.0 375.0 377.0 381.0 385.0 388.0 388.0 387.0 387.0 387.0 387.0 387.0 387.0 375.0 375.0 385.0 391.0 400.0 412.0 425.0 428.0 433.0 437.0 442.0 446.0 450.0 450.0 454.0 456.0 460.0 465.0 470.0 475.0 483.0 489.0 500.0 500.0 504.0 508.0 512.0 517.0 525.0 528.0 529.0 531.0 536.0 540.0 545.0 547.0 550.0 557.0 564.0 568.0 575.0 579.0 583.0 587.0 590.0 593.0 597.0 600.0 603.0 607.0 610.0 613.0
-9999.0 -9999.0 -9999.0 -9999.0 -9999.0 -9999.0 -9999.0 -9999.0 -9999.0 -9999.0 -9999.0 -9999.0 -9999.0 -9999.0 -9999.0 -9999.0 -9999.0 -9999.0 -9999.0 -9999.0 -9999.0 -9999.0 -9999.0 -9999.0 -9999.0 -9999.0 -9999.0 -9999.0 -9999.0 -9999.0 -9999.0 -9999.0 -9999.0 -9999.0 -9999.0 -9999.0 -9999.0 -9999.0 -9999.0 -9999.0 -9999.0 -9999.0 -9999.0 -9999.0 -9999.0 -9999.0 -9999.0 -9999.0 -9999.0 -9999.0 -9999.0 -9999.0 -9999.0 -9999.0 -9999.0 -9999.0 -9999.0 -9999.0 -9999.0 -9999.0 -9999.0 -9999.0 -9999.0 -9999.0 -9999.0 -9999.0 -9999.0 -9999.0 -9999.0 -9999.0 -9999.0 -9999.0 -9999.0 -9999.0 -9999.0 -9999.0 -9999.0 -9999.0 -9999.0 -9999.0 -9999.0 -9999.0 -9999.0 -9999.0 -9999.0 -9999.0 -9999.0 -9999.0 -9999.0 -9999.0 -9999.0 -9999.0 -9999.0 -9999.0 -9999.0 -9999.0 -9999.0 -9999.0 -9999.0 -9999.0 -9999.0 -9999.0 -9999.0 -9999.0 -9999.0 -9999.0 -9999.0 -9999.0 -9999.0 -9999.0 -9999.0 -9999.0 -9999.0 -9999.0 -9999.0 -9999.0 -9999.0 -9999.0 -9999.0 -9999.0 -9999.0 -9999.0 -9999.0 -9999.0 -9999.0 -9999.0 -9999.0 -9999.0 -9999.0 -9999.0 -9999.0 -9999.0 -9999.0 -9999.0 -9999.0 -9999.0 -9999.0 -9999.0 -9999.0 -9999.0 -9999.0 -9999.0 -9999.0 -9999.0 -9999.0 -9999.0 -9999.0 -9999.0 -9999.0 -9999.0 -9999.0 -9999.0 -9999.0 -9999.0 478.0 475.0 469.0 461.0 453.0 446.0 441.0 437.0 432.0 429.0 425.0 416.0 411.0 406.0 405.0 404.0 405.0 404.0 401.0 392.0 375.0 375.0 363.0 353.0 350.0 347.0 348.0 350.0 350.0 337.0 336.0 334.0 331.0 325.0 322.0 318.0 316.0 316.0 316.0 316.0 317.0 316.0 314.0 311.0 306.0 302.0 299.0 299.0 299.0 298.0 298.0 298.0 298.0 298.0 298.0 298.0 298.0 298.0 298.0 298.0 298.0 298.0 298.0 298.0 298.0 298.0 298.0 298.0 298.0 298.0 298.0 298.0 298.0 299.0 299.0 299.0 299.0 299.0 299.0 299.0 299.0 299.0 299.0 299.0 299.0 299.0 299.0 300.0 300.0 300.0 300.0 300.0 300.0 300.0 300.0 306.0 308.0 311.0 313.0 316.0 319.0 323.0 326.0 330.0 334.0 338.0 341.0 345.0 348.0 350.0 358.0 366.0 375.0 376.0 377.0 375.0 371.0 366.0 362.0 357.0 350.0 350.0 338.0 335.0 325.0 325.0 322.0 322.0 321.0 320.0 320.0 319.0 320.0 320.0 320.0 320.0 320.0 320.0 321.0 320.0 320.0 321.0 324.0 325.0 332.0 337.0 341.0 343.0 350.0 350.0 337.0 325.0 321.0 320.0 320.0 320.0 320.0 321.0 321.0 323.0 325.0 325.0 332.0 337.0 342.0 344.0 343.0 341.0 343.0 345.0 344.0 343.0 342.0 337.0 335.0 335.0 337.0 338.0 339.0 338.0 340.0 342.0 346.0 349.0 354.0 358.0 365.0 367.0 368.0 369.0 375.0 379.0 379.0 380.0 384.0 388.0 392.0 393.0 393.0 393.0 393.0 392.0 397.0 400.0 400.0 396.0 389.0 393.0 400.0 412.0 425.0 425.0 430.0 435.0 438.0 442.0 445.0 447.0 450.0 455.0 460.0 465.0 470.0 475.0 475.0 485.0 489.0 500.0 499.0 506.0 508.0 514.0 525.0 528.0 531.0 535.0 538.0 543.0 550.0 550.0 552.0 561.0 568.0 575.0 577.0 581.0 585.0 589.0 593.0 595.0 600.0 601.0 604.0 607.0 609.0 610.0
-9999.0 -9999.0 -9999.0 -9999.0 -9999.0 -9999.0 -9999.0 -9999.0 -9999.0 -9999.0 -9999.0 -9999.0 -9999.0 -9999.0 -9999.0 -9999.0 -9999.0 -9999.0 -9999.0 -9999.0 -9999.0 -9999.0 -9999.0 -9999.0 -9999.0 -9999.0 -9999.0 -9999.0 -9999.0 -9999.0 -9999.0 -9999.0 -9999.0 -9999.0 -9999.0 -9999.0 -9999.0 -9999.0 -9999.0 -9999.0 -9999.0 -9999.0 -9999.0 -9999.0 -9999.0 -9999.0 -9999.0 -9999.0 -9999.0 -9999.0 -9999.0 -9999.0 -9999.0 -9999.0 -9999.0 -9999.0 -9999.0 -9999.0 -9999.0 -9999.0 -9999.0 -9999.0 -9999.0 -9999.0 -9999.0 -9999.0 -9999.0 -9999.0 -9999.0 -9999.0 -9999.0 -9999.0 -9999.0 -9999.0 -9999.0 -9999.0 -9999.0 -9999.0 -9999.0 -9999.0 -9999.0 -9999.0 -9999.0 -9999.0 -9999.0 -9999.0 -9999.0 -9999.0 -9999.0 -9999.0 -9999.0 -9999.0 -9999.0 -9999.0 -9999.0 -9999.0 -9999.0 -9999.0 -9999.0 -9999.0 -9999.0 -9999.0 -9999.0 -9999.0 -9999.0 -9999.0 -9999.0 -9999.0 -9999.0 -9999.0 -9999.0 -9999.0 -9999.0 -9999.0 -9999.0 -9999.0 -9999.0 -9999.0 -9999.0 -9999.0 -9999.0 -9999.0 -9999.0 -9999.0 -9999.0 -9999.0 -9999.0 -9999.0 -9999.0 -9999.0 -9999.0 -9999.0 -9999.0 -9999.0 -9999.0 -9999.0 -9999.0 -9999.0 -9999.0 -9999.0 -9999.0 -9999.0 -9999.0 -9999.0 -9999.0 -9999.0 -9999.0 -9999.0 -9999.0 -9999.0 -9999.0 -9999.0 -9999.0 481.0 478.0 476.0 470.0 464.0 457.0 450.0 444.0 440.0 435.0 430.0 425.0 418.0 414.0 410.0 409.0 408.0 409.0 405.0 402.0 393.0 385.0 375.0 365.0 358.0 350.0 348.0 344.0 341.0 337.0 325.0 329.0 328.0 329.0 325.0 319.0 315.0 312.0 312.0 312.0 312.0 313.0 314.0 312.0 309.0 306.0 304.0 300.0 299.0 299.0 298.0 298.0 298.0 298.0 298.0 298.0 298.0 298.0 298.0 298.0 298.0 298.0 298.0 298.0 298.0 298.0 298.0 298.0 298.0 298.0 298.0 298.0 299.0 299.0 299.0 299.0 299.0 299.0 299.0 299.0 299.0 299.0 299.0 299.0 299.0 299.0 299.0 299.0 301.0 300.0 300.0 300.0 300.0 300.0 300.0 305.0 309.0 313.0 314.0 316.0 319.0 321.0 323.0 327.0 331.0 335.0 338.0 342.0 346.0 350.0 354.0 360.0 367.0 375.0 378.0 379.0 380.0 376.0 372.0 366.0 361.0 357.0 353.0 350.0 339.0 333.0 331.0 325.0 323.0 322.0 321.0 321.0 321.0 319.0 320.0 320.0 320.0 320.0 320.0 320.0 320.0 320.0 320.0 322.0 322.0 325.0 332.0 334.0 336.0 337.0 329.0 325.0 320.0 320.0 320.0 320.0 320.0 320.0 320.0 321.0 323.0 325.0 329.0 335.0 341.0 347.0 350.0 345.0 344.0 345.0 350.0 350.0 350.0 350.0 342.0 340.0 342.0 342.0 342.0 340.0 341.0 342.0 343.0 347.0 350.0 356.0 361.0 367.0 373.0 375.0 375.0 375.0 380.0 384.0 385.0 386.0 390.0 395.0 400.0 400.0 400.0 400.0 400.0 402.0 403.0 403.0 402.0 400.0 400.0 400.0 410.0 415.0 425.0 430.0 432.0 436.0 442.0 450.0 450.0 450.0 455.0 460.0 464.0 468.0 471.0 475.0 475.0 485.0 491.0 498.0 500.0 502.0 510.0 514.0 525.0 529.0 535.0 539.0 544.0 550.0 557.0 561.0 566.0 575.0 577.0 580.0 584.0 587.0 591.0 595.0 600.0 600.0 602.0 605.0 605.0 606.0 607.0
-9999.0 -9999.0 -9999.0 -9999.0 -9999.0 -9999.0 -9999.0 -9999.0 -9999.0 -9999.0 -9999.0 -9999.0 -9999.0 -9999.0 -9999.0 -9999.0 -9999.0 -9999.0 -9999.0 -9999.0 -9999.0 -9999.0 -9999.0 -9999.0 -9999.0 -9999.0 -9999.0 -9999.0 -9999.0 -9999.0 -9999.0 -9999.0 -9999.0 -9999.0 -9999.0 -9999.0 -9999.0 -9999.0 -9999.0 -9999.0 -9999.0 -9999.0 -9999.0 -9999.0 -9999.0 -9999.0 -9999.0 -9999.0 -9999.0 -9999.0 -9999.0 -9999.0 -9999.0 -9999.0 -9999.0 -9999.0 -9999.0 -9999.0 -9999.0 -9999.0 -9999.0 -9999.0 -9999.0 -9999.0 -9999.0 -9999.0 -9999.0 -9999.0 -9999.0 -9999.0 -9999.0 -9999.0 -9999.0 -9999.0 -9999.0 -9999.0 -9999.0 -9999.0 -9999.0 -9999.0 -9999.0 -9999.0 -9999.0 -9999.0 -9999.0 -9999.0 -9999.0 -9999.0 -9999.0 -9999.0 -9999.0 -9999.0 -9999.0 -9999.0 -9999.0 -9999.0 -9999.0 -9999.0 -9999.0 -9999.0 -9999.0 -9999.0 -9999.0 -9999.0 -9999.0 -9999.0 -9999.0 -9999.0 -9999.0 -9999.0 -9999.0 -9999.0 -9999.0 -9999.0 -9999.0 -9999.0 -9999.0 -9999.0 -9999.0 -9999.0 -9999.0 -9999.0 -9999.0 -9999.0 -9999.0 -9999.0 -9999.0 -9999.0 -9999.0 -9999.0 -9999.0 -9999.0 -9999.0 -9999.0 -9999.0 -9999.0 -9999.0 -9999.0 -9999.0 -9999.0 -9999.0 -9999.0 -9999.0 -9999.0 -9999.0 -9999.0 -9999.0 -9999.0 -9999.0 -9999.0 -9999.0 -9999.0 -9999.0 483.0 480.0 478.0 475.0 466.0 460.0 453.0 446.0 442.0 436.0 431.0 427.0 421.0 417.0 415.0 414.0 413.0 409.0 405.0 402.0 394.0 385.0 378.0 370.0 363.0 357.0 350.0 350.0 341.0 336.0 328.0 325.0 324.0 325.0 319.0 316.0 312.0 309.0 308.0 308.0 308.0 309.0 310.0 310.0 310.0 307.0 304.0 301.0 299.0 299.0 298.0 298.0 298.0 298.0 298.0 298.0 298.0 298.0 298.0 298.0 298.0 298.0 298.0 298.0 298.0 298.0 298.0 298.0 298.0 298.0 298.0 298.0 299.0 299.0 299.0 299.0 299.0 299.0 299.0 299.0 299.0 299.0 299.0 299.0 299.0 299.0 299.0 299.0 300.0 300.0 300.0 300.0 300.0 300.0 310.0 313.0 316.0 317.0 319.0 320.0 323.0 325.0 325.0 330.0 333.0 337.0 339.0 343.0 346.0 350.0 357.0 363.0 372.0 375.0 379.0 383.0 383.0 381.0 375.0 372.0 367.0 363.0 357.0 352.0 344.0 340.0 335.0 332.0 325.0 323.0 322.0 322.0 322.0 321.0 320.0 320.0 320.0 320.0 320.0 320.0 320.0 320.0 320.0 321.0 321.0 322.0 325.0 327.0 327.0 325.0 325.0 320.0 320.0 320.0 320.0 320.0 320.0 320.0 321.0 322.0 321.0 325.0 333.0 340.0 347.0 347.0 349.0 350.0 346.0 350.0 351.0 352.0 353.0 353.0 350.0 344.0 348.0 350.0 348.0 344.0 345.0 344.0 345.0 347.0 350.0 356.0 362.0 368.0 375.0 379.0 379.0 380.0 383.0 387.0 390.0 390.0 393.0 395.0 400.0 404.0 404.0 405.0 402.0 405.0 407.0 407.0 405.0 405.0 405.0 400.0 405.0 412.0 417.0 425.0 429.0 433.0 439.0 450.0 450.0 455.0 458.0 462.0 467.0 470.0 475.0 475.0 475.0 482.0 489.0 493.0 496.0 500.0 500.0 513.0 525.0 530.0 533.0 538.0 543.0 550.0 558.0 566.0 575.0 573.0 577.0 580.0 584.0 587.0 592.0 598.0 597.0 599.0 601.0 602.0 603.0 603.0 605.0
-9999.0 -9999.0 -9999.0 -9999.0 -9999.0 -9999.0 -9999.0 -9999.0 -9999.0 -9999.0 -9999.0 -9999.0 -9999.0 -9999.0 -9999.0 -9999.0 -9999.0 -9999.0 -9999.0 -9999.0 -9999.0 -9999.0 -9999.0 -9999.0 -9999.0 -9999.0 -9999.0 -9999.0 -9999.0 -9999.0 -9999.0 -9999.0 -9999.0 -9999.0 -9999.0 -9999.0 -9999.0 -9999.0 -9999.0 -9999.0 -9999.0 -9999.0 -9999.0 -9999.0 -9999.0 -9999.0 -9999.0 -9999.0 -9999.0 -9999.0 -9999.0 -9999.0 -9999.0 -9999.0 -9999.0 -9999.0 -9999.0 -9999.0 -9999.0 -9999.0 -9999.0 -9999.0 -9999.0 -9999.0 -9999.0 -9999.0 -9999.0 -9999.0 -9999.0 -9999.0 -9999.0 -9999.0 -9999.0 -9999.0 -9999.0 -9999.0 -9999.0 -9999.0 -9999.0 -9999.0 -9999.0 -9999.0 -9999.0 -9999.0 -9999.0 -9999.0 -9999.0 -9999.0 -9999.0 -9999.0 -9999.0 -9999.0 -9999.0 -9999.0 -9999.0 -9999.0 -9999.0 -9999.0 -9999.0 -9999.0 -9999.0 -9999.0 -9999.0 -9999.0 -9999.0 -9999.0 -9999.0 -9999.0 -9999.0 -9999.0 -9999.0 -9999.0 -9999.0 -9999.0 -9999.0 -9999.0 -9999.0 -9999.0 -9999.0 -9999.0 -9999.0 -9999.0 -9999.0 -9999.0 -9999.0 -9999.0 -9999.0 -9999.0 -9999.0 -9999.0 -9999.0 -9999.0 -9999.0 -9999.0 -9999.0 -9999.0 -9999.0 -9999.0 -9999.0 -9999.0 -9999.0 -9999.0 -9999.0 -9999.0 -9999.0 -9999.0 -9999.0 -9999.0 -9999.0 -9999.0 -9999.0 -9999.0 488.0 486.0 483.0 479.0 476.0 470.0 464.0 459.0 450.0 443.0 439.0 433.0 427.0 422.0 420.0 420.0 418.0 414.0 409.0 405.0 400.0 393.0 387.0 382.0 375.0 367.0 361.0 356.0 352.0 350.0 340.0 333.0 325.0 321.0 320.0 317.0 313.0 308.0 305.0 304.0 304.0 304.0 306.0 307.0 307.0 306.0 306.0 303.0 300.0 299.0 300.0 299.0 299.0 299.0 298.0 298.0 298.0 298.0 298.0 298.0 298.0 298.0 298.0 298.0 298.0 298.0 298.0 298.0 298.0 298.0 298.0 298.0 298.0 298.0 299.0 299.0 299.0 299.0 299.0 299.0 299.0 299.0 299.0 299.0 299.0 299.0 299.0 299.0 299.0 300.0 300.0 300.0 300.0 307.0 307.0 313.0 325.0 325.0 325.0 325.0 325.0 325.0 330.0 330.0 333.0 335.0 340.0 343.0 344.0 348.0 353.0 358.0 365.0 372.0 377.0 382.0 386.0 388.0 386.0 381.0 378.0 375.0 367.0 363.0 358.0 350.0 343.0 342.0 337.0 332.0 327.0 323.0 323.0 322.0 322.0 321.0 321.0 320.0 320.0 320.0 320.0 320.0 320.0 320.0 320.0 321.0 321.0 322.0 322.0 322.0 320.0 320.0 320.0 320.0 320.0 320.0 320.0 320.0 321.0 323.0 324.0 324.0 329.0 334.0 342.0 350.0 350.0 352.0 350.0 350.0 350.0 353.0 355.0 357.0 355.0 354.0 350.0 352.0 354.0 352.0 350.0 347.0 345.0 346.0 349.0 350.0 356.0 362.0 368.0 375.0 379.0 382.0 385.0 387.0 391.0 394.0 394.0 395.0 400.0 401.0 405.0 409.0 409.0 407.0 408.0 410.0 411.0 410.0 409.0 408.0 409.0 412.0 416.0 419.0 422.0 424.0 425.0 435.0 441.0 450.0 455.0 460.0 465.0 469.0 475.0 480.0 481.0 482.0 487.0 492.0 497.0 499.0 499.0 508.0 514.0 524.0 525.0 531.0 537.0 543.0 550.0 558.0 565.0 572.0 575.0 575.0 580.0 581.0 585.0 590.0 597.0 596.0 598.0 600.0 600.0 600.0 601.0 603.0
-9999.0 -9999.0 -9999.0 -9999.0 -9999.0 -9999.0 -9999.0 -9999.0 -9999.0 -9999.0 -9999.0 -9999.0 -9999.0 -9999.0 -9999.0 -9999.0 -9999.0 -9999.0 -9999.0 -9999.0 -9999.0 -9999.0 -9999.0 -9999.0 -9999.0 -9999.0 -9999.0 -9999.0 -9999.0 -9999.0 -9999.0 -9999.0 -9999.0 -9999.0 -9999.0 -9999.0 -9999.0 -9999.0 -9999.0 -9999.0 -9999.0 -9999.0 -9999.0 -9999.0 -9999.0 -9999.0 -9999.0 -9999.0 -9999.0 -9999.0 -9999.0 -9999.0 -9999.0 -9999.0 -9999.0 -9999.0 -9999.0 -9999.0 -9999.0 -9999.0 -9999.0 -9999.0 -9999.0 -9999.0 -9999.0 -9999.0 -9999.0 -9999.0 -9999.0 -9999.0 -9999.0 -9999.0 -9999.0 -9999.0 -9999.0 -9999.0 -9999.0 -9999.0 -9999.0 -9999.0 -9999.0 -9999.0 -9999.0 -9999.0 -9999.0 -9999.0 -9999.0 -9999.0 -9999.0 -9999.0 -9999.0 -9999.0 -9999.0 -9999.0 -9999.0 -9999.0 -9999.0 -9999.0 -9999.0 -9999.0 -9999.0 -9999.0 -9999.0 -9999.0 -9999.0 -9999.0 -9999.0 -9999.0 -9999.0 -9999.0 -9999.0 -9999.0 -9999.0 -9999.0 -9999.0 -9999.0 -9999.0 -9999.0 -9999.0 -9999.0 -9999.0 -9999.0 -9999.0 -9999.0 -9999.0 -9999.0 -9999.0 -9999.0 -9999.0 -9999.0 -9999.0 -9999.0 -9999.0 -9999.0 -9999.0 -9999.0 -9999.0 -9999.0 -9999.0 -9999.0 -9999.0 -9999.0 -9999.0 -9999.0 -9999.0 -9999.0 -9999.0 -9999.0 -9999.0 -9999.0 -9999.0 -9999.0 490.0 486.0 483.0 479.0 476.0 475.0 466.0 457.0 450.0 442.0 438.0 433.0 429.0 425.0 425.0 425.0 418.0 413.0 406.0 400.0 396.0 393.0 388.0 384.0 378.0 370.0 365.0 360.0 356.0 352.0 344.0 335.0 328.0 322.0 318.0 315.0 310.0 305.0 300.0 300.0 300.0 301.0 303.0 303.0 303.0 303.0 303.0 302.0 300.0 299.0 299.0 299.0 299.0 299.0 299.0 298.0 299.0 299.0 298.0 298.0 298.0 298.0 298.0 298.0 298.0 298.0 298.0 298.0 298.0 298.0 298.0 298.0 298.0 299.0 299.0 299.0 299.0 299.0 299.0 299.0 299.0 299.0 299.0 299.0 299.0 299.0 299.0 299.0 299.0 300.0 300.0 300.0 307.0 320.0 320.0 325.0 324.0 328.0 328.0 328.0 329.0 330.0 332.0 335.0 338.0 339.0 343.0 348.0 348.0 353.0 355.0 360.0 366.0 372.0 378.0 383.0 388.0 392.0 392.0 387.0 382.0 377.0 375.0 367.0 364.0 360.0 350.0 350.0 342.0 338.0 332.0 325.0 323.0 322.0 322.0 321.0 322.0 321.0 321.0 320.0 320.0 320.0 320.0 320.0 320.0 320.0 320.0 320.0 320.0 320.0 320.0 320.0 320.0 320.0 320.0 320.0 320.0 321.0 322.0 325.0 326.0 329.0 331.0 336.0 340.0 345.0 350.0 354.0 353.0 353.0 353.0 356.0 358.0 360.0 358.0 356.0 355.0 357.0 359.0 355.0 350.0 350.0 347.0 347.0 348.0 350.0 356.0 360.0 366.0 375.0 377.0 383.0 388.0 392.0 394.0 400.0 399.0 400.0 402.0 405.0 408.0 412.0 415.0 412.0 412.0 414.0 415.0 415.0 415.0 414.0 415.0 422.0 425.0 425.0 425.0 427.0 425.0 433.0 441.0 450.0 456.0 462.0 467.0 473.0 477.0 481.0 485.0 488.0 492.0 500.0 501.0 507.0 515.0 515.0 516.0 517.0 525.0 531.0 535.0 542.0 550.0 555.0 559.0 562.0 566.0 575.0 576.0 576.0 581.0 584.0 589.0 600.0 600.0 594.0 595.0 598.0 598.0 600.0
-9999.0 -9999.0 -9999.0 -9999.0 -9999.0 -9999.0 -9999.0 -9999.0 -9999.0 -9999.0 -9999.0 -9999.0 -9999.0 -9999.0 -9999.0 -9999.0 -9999.0 -9999.0 -9999.0 -9999.0 -9999.0 -9999.0 -9999.0 -9999.0 -9999.0 -9999.0 -9999.0 -9999.0 -9999.0 -9999.0 -9999.0 -9999.0 -9999.0 -9999.0 -9999.0 -9999.0 -9999.0 -9999.0 -9999.0 -9999.0 -9999.0 -9999.0 -9999.0 -9999.0 -9999.0 -9999.0 -9999.0 -9999.0 -9999.0 -9999.0 -9999.0 -9999.0 -9999.0 -9999.0 -9999.0 -9999.0 -9999.0 -9999.0 -9999.0 -9999.0 -9999.0 -9999.0 -9999.0 -9999.0 -9999.0 -9999.0 -9999.0 -9999.0 -9999.0 -9999.0 -9999.0 -9999.0 -9999.0 -9999.0 -9999.0 -9999.0 -9999.0 -9999.0 -9999.0 -9999.0 -9999.0 -9999.0 -9999.0 -9999.0 -9999.0 -9999.0 -9999.0 -9999.0 -9999.0 -9999.0 -9999.0 -9999.0 -9999.0 -9999.0 -9999.0 -9999.0 -9999.0 -9999.0 -9999.0 -9999.0 -9999.0 -9999.0 -9999.0 -9999.0 -9999.0 -9999.0 -9999.0 -9999.0 -9999.0 -9999.0 -9999.0 -9999.0 -9999.0 -9999.0 -9999.0 -9999.0 -9999.0 -9999.0 -9999.0 -9999.0 -9999.0 -9999.0 -9999.0 -9999.0 -9999.0 -9999.0 -9999.0 -9999.0 -9999.0 -9999.0 -9999.0 -9999.0 -9999.0 -9999.0 -9999.0 -9999.0 -9999.0 -9999.0 -9999.0 -9999.0 -9999.0 -9999.0 -9999.0 -9999.0 -9999.0 -9999.0 -9999.0 -9999.0 -9999.0 -9999.0 -9999.0 494.0 492.0 489.0 485.0 481.0 479.0 475.0 467.0 462.0 453.0 448.0 442.0 436.0 435.0 430.0 428.0 426.0 422.0 414.0 407.0 400.0 400.0 400.0 396.0 386.0 375.0 372.0 367.0 362.0 356.0 350.0 342.0 335.0 331.0 325.0 320.0 315.0 309.0 305.0 300.0 299.0 299.0 300.0 300.0 300.0 300.0 300.0 300.0 300.0 299.0 299.0 299.0 299.0 299.0 299.0 299.0 299.0 301.0 300.0 298.0 298.0 298.0 298.0 298.0 298.0 298.0 298.0 298.0 298.0 298.0 298.0 298.0 298.0 298.0 299.0 299.0 299.0 299.0 299.0 299.0 299.0 299.0 299.0 299.0 299.0 299.0 299.0 299.0 299.0 300.0 300.0 300.0 307.0 320.0 325.0 326.0 327.0 328.0 329.0 331.0 332.0 333.0 334.0 336.0 340.0 342.0 343.0 348.0 350.0 353.0 356.0 360.0 363.0 367.0 372.0 375.0 384.0 391.0 395.0 400.0 392.0 388.0 383.0 381.0 375.0 375.0 364.0 361.0 358.0 350.0 341.0 334.0 327.0 323.0 323.0 322.0 322.0 322.0 322.0 321.0 320.0 320.0 320.0 320.0 320.0 320.0 320.0 320.0 320.0 320.0 320.0 320.0 320.0 320.0 320.0 320.0 320.0 320.0 322.0 325.0 329.0 331.0 332.0 337.0 340.0 342.0 348.0 353.0 355.0 357.0 357.0 358.0 359.0 361.0 363.0 362.0 360.0 360.0 362.0 362.0 358.0 356.0 350.0 348.0 347.0 348.0 348.0 350.0 357.0 365.0 373.0 378.0 383.0 389.0 394.0 400.0 400.0 402.0 404.0 406.0 409.0 412.0 416.0 419.0 417.0 415.0 417.0 419.0 420.0 420.0 419.0 418.0 425.0 431.0 432.0 435.0 428.0 435.0 434.0 442.0 450.0 456.0 463.0 468.0 475.0 479.0 483.0 488.0 492.0 498.0 504.0 507.0 513.0 520.0 521.0 523.0 523.0 524.0 525.0 532.0 539.0 543.0 550.0 550.0 555.0 560.0 567.0 569.0 571.0 575.0 575.0 585.0 589.0 592.0 591.0 591.0 594.0 595.0 596.0
-9999.0 -9999.0 -9999.0 -9999.0 -9999.0 -9999.0 -9999.0 -9999.0 -9999.0 -9999.0 -9999.0 -9999.0 -9999.0 -9999.0 -9999.0 -9999.0 -9999.0 -9999.0 -9999.0 -9999.0 -9999.0 -9999.0 -9999.0 -9999.0 -9999.0 -9999.0 -9999.0 -9999.0 -9999.0 -9999.0 -9999.0 -9999.0 -9999.0 -9999.0 -9999.0 -9999.0 -9999.0 -9999.0 -9999.0 -9999.0 -9999.0 -9999.0 -9999.0 -9999.0 -9999.0 -9999.0 -9999.0 -9999.0 -9999.0 -9999.0 -9999.0 -9999.0 -9999.0 -9999.0 -9999.0 -9999.0 -9999.0 -9999.0 -9999.0 -9999.0 -9999.0 -9999.0 -9999.0 -9999.0 -9999.0 -9999.0 -9999.0 -9999.0 -9999.0 -9999.0 -9999.0 -9999.0 -9999.0 -9999.0 -9999.0 -9999.0 -9999.0 -9999.0 -9999.0 -9999.0 -9999.0 -9999.0 -9999.0 -9999.0 -9999.0 -9999.0 -9999.0 -9999.0 -9999.0 -9999.0 -9999.0 -9999.0 -9999.0 -9999.0 -9999.0 -9999.0 -9999.0 -9999.0 -9999.0 -9999.0 -9999.0 -9999.0 -9999.0 -9999.0 -9999.0 -9999.0 -9999.0 -9999.0 -9999.0 -9999.0 -9999.0 -9999.0 -9999.0 -9999.0 -9999.0 -9999.0 -9999.0 -9999.0 -9999.0 -9999.0 -9999.0 -9999.0 -9999.0 -9999.0 -9999.0 -9999.0 -9999.0 -9999.0 -9999.0 -9999.0 -9999.0 -9999.0 -9999.0 -9999.0 -9999.0 -9999.0 -9999.0 -9999.0 -9999.0 -9999.0 -9999.0 -9999.0 -9999.0 -9999.0 -9999.0 -9999.0 -9999.0 -9999.0 -9999.0 -9999.0 -9999.0 498.0 494.0 491.0 487.0 483.0 480.0 478.0 475.0 466.0 459.0 453.0 446.0 443.0 437.0 433.0 431.0 426.0 422.0 415.0 409.0 405.0 405.0 404.0 400.0 389.0 383.0 375.0 368.0 362.0 356.0 350.0 343.0 337.0 331.0 325.0 322.0 317.0 311.0 306.0 300.0 300.0 299.0 299.0 299.0 299.0 299.0 299.0 299.0 299.0 299.0 299.0 299.0 299.0 299.0 299.0 299.0 299.0 300.0 300.0 298.0 298.0 298.0 298.0 298.0 298.0 298.0 298.0 298.0 298.0 298.0 298.0 298.0 298.0 298.0 299.0 299.0 299.0 299.0 299.0 299.0 299.0 299.0 299.0 299.0 299.0 299.0 299.0 299.0 299.0 300.0 300.0 307.0 320.0 326.0 326.0 327.0 328.0 330.0 331.0 332.0 334.0 335.0 337.0 340.0 343.0 348.0 348.0 352.0 354.0 355.0 358.0 363.0 366.0 372.0 375.0 384.0 388.0 397.0 400.0 400.0 400.0 392.0 388.0 383.0 380.0 379.0 375.0 367.0 360.0 352.0 342.0 334.0 325.0 323.0 323.0 322.0 322.0 322.0 322.0 321.0 321.0 320.0 321.0 320.0 320.0 320.0 320.0 320.0 320.0 320.0 320.0 320.0 320.0 320.0 320.0 320.0 320.0 320.0 322.0 325.0 330.0 335.0 337.0 341.0 346.0 347.0 350.0 356.0 359.0 361.0 361.0 361.0 362.0 364.0 366.0 366.0 364.0 365.0 367.0 367.0 363.0 358.0 352.0 350.0 348.0 347.0 347.0 350.0 357.0 365.0 373.0 378.0 383.0 389.0 394.0 398.0 402.0 405.0 407.0 410.0 413.0 417.0 419.0 425.0 420.0 420.0 420.0 423.0 425.0 425.0 423.0 423.0 429.0 433.0 439.0 441.0 450.0 439.0 437.0 442.0 450.0 457.0 462.0 472.0 477.0 480.0 484.0 488.0 493.0 498.0 504.0 509.0 516.0 523.0 525.0 527.0 527.0 528.0 531.0 533.0 539.0 542.0 545.0 548.0 549.0 555.0 562.0 565.0 568.0 571.0 573.0 575.0 583.0 585.0 587.0 588.0 590.0 592.0 596.0
-9999.0 -9999.0 -9999.0 -9999.0 -9999.0 -9999.0 -9999.0 -9999.0 -9999.0 -9999.0 -9999.0 -9999.0 -9999.0 -9999.0 -9999.0 -9999.0 -9999.0 -9999.0 -9999.0 -9999.0 -9999.0 -9999.0 -9999.0 -9999.0 -9999.0 -9999.0 -9999.0 -9999.0 -9999.0 -9999.0 -9999.0 -9999.0 -9999.0 -9999.0 -9999.0 -9999.0 -9999.0 -9999.0 -9999.0 -9999.0 -9999.0 -9999.0 -9999.0 -9999.0 -9999.0 -9999.0 -9999.0 -9999.0 -9999.0 -9999.0 -9999.0 -9999.0 -9999.0 -9999.0 -9999.0 -9999.0 -9999.0 -9999.0 -9999.0 -9999.0 -9999.0 -9999.0 -9999.0 -9999.0 -9999.0 -9999.0 -9999.0 -9999.0 -9999.0 -9999.0 -9999.0 -9999.0 -9999.0 -9999.0 -9999.0 -9999.0 -9999.0 -9999.0 -9999.0 -9999.0 -9999.0 -9999.0 -9999.0 -9999.0 -9999.0 -9999.0 -9999.0 -9999.0 -9999.0 -9999.0 -9999.0 -9999.0 -9999.0 -9999.0 -9999.0 -9999.0 -9999.0 -9999.0 -9999.0 -9999.0 -9999.0 -9999.0 -9999.0 -9999.0 -9999.0 -9999.0 -9999.0 -9999.0 -9999.0 -9999.0 -9999.0 -9999.0 -9999.0 -9999.0 -9999.0 -9999.0 -9999.0 -9999.0 -9999.0 -9999.0 -9999.0 -9999.0 -9999.0 -9999.0 -9999.0 -9999.0 -9999.0 -9999.0 -9999.0 -9999.0 -9999.0 -9999.0 -9999.0 -9999.0 -9999.0 -9999.0 -9999.0 -9999.0 -9999.0 -9999.0 -9999.0 -9999.0 -9999.0 -9999.0 -9999.0 -9999.0 -9999.0 -9999.0 -9999.0 -9999.0 501.0 500.0 496.0 491.0 488.0 485.0 482.0 478.0 475.0 468.0 461.0 455.0 450.0 442.0 438.0 435.0 431.0 425.0 420.0 416.0 412.0 410.0 408.0 404.0 400.0 391.0 383.0 375.0 368.0 364.0 357.0 350.0 343.0 338.0 333.0 330.0 325.0 318.0 313.0 307.0 302.0 300.0 299.0 299.0 299.0 299.0 299.0 299.0 299.0 299.0 299.0 299.0 299.0 299.0 299.0 299.0 299.0 299.0 299.0 300.0 300.0 300.0 300.0 298.0 298.0 298.0 298.0 298.0 298.0 298.0 298.0 300.0 299.0 299.0 298.0 299.0 299.0 300.0 299.0 299.0 299.0 299.0 299.0 299.0 299.0 299.0 299.0 299.0 299.0 300.0 300.0 300.0 325.0 322.0 326.0 328.0 329.0 331.0 331.0 334.0 335.0 336.0 338.0 340.0 342.0 346.0 350.0 353.0 355.0 356.0 359.0 362.0 367.0 375.0 381.0 383.0 387.0 397.0 401.0 401.0 401.0 400.0 395.0 391.0 387.0 385.0 381.0 376.0 366.0 354.0 344.0 337.0 328.0 328.0 325.0 323.0 323.0 323.0 323.0 323.0 322.0 322.0 321.0 321.0 320.0 320.0 320.0 320.0 320.0 320.0 320.0 320.0 320.0 320.0 320.0 320.0 320.0 320.0 322.0 322.0 325.0 331.0 336.0 340.0 343.0 348.0 354.0 357.0 360.0 363.0 364.0 364.0 364.0 365.0 367.0 369.0 371.0 369.0 369.0 373.0 373.0 367.0 364.0 360.0 352.0 350.0 347.0 347.0 350.0 357.0 364.0 372.0 377.0 382.0 387.0 391.0 395.0 400.0 404.0 408.0 412.0 416.0 420.0 425.0 427.0 425.0 425.0 425.0 431.0 427.0 430.0 429.0 429.0 432.0 437.0 442.0 450.0 450.0 444.0 440.0 442.0 446.0 450.0 460.0 472.0 475.0 479.0 482.0 486.0 491.0 495.0 500.0 508.0 516.0 523.0 527.0 530.0 532.0 534.0 535.0 538.0 542.0 548.0 550.0 550.0 550.0 559.0 563.0 567.0 569.0 572.0 573.0 575.0 575.0 581.0 584.0 586.0 589.0 592.0 596.0
-9999.0 -9999.0 -9999.0 -9999.0 -9999.0 -9999.0 -9999.0 -9999.0 -9999.0 -9999.0 -9999.0 -9999.0 -9999.0 -9999.0 -9999.0 -9999.0 -9999.0 -9999.0 -9999.0 -9999.0 -9999.0 -9999.0 -9999.0 -9999.0 -9999.0 -9999.0 -9999.0 -9999.0 -9999.0 -9999.0 -9999.0 -9999.0 -9999.0 -9999.0 -9999.0 -9999.0 -9999.0 -9999.0 -9999.0 -9999.0 -9999.0 -9999.0 -9999.0 -9999.0 -9999.0 -9999.0 -9999.0 -9999.0 -9999.0 -9999.0 -9999.0 -9999.0 -9999.0 -9999.0 -9999.0 -9999.0 -9999.0 -9999.0 -9999.0 -9999.0 -9999.0 -9999.0 -9999.0 -9999.0 -9999.0 -9999.0 -9999.0 -9999.0 -9999.0 -9999.0 -9999.0 -9999.0 -9999.0 -9999.0 -9999.0 -9999.0 -9999.0 -9999.0 -9999.0 -9999.0 -9999.0 -9999.0 -9999.0 -9999.0 -9999.0 -9999.0 -9999.0 -9999.0 -9999.0 -9999.0 -9999.0 -9999.0 -9999.0 -9999.0 -9999.0 -9999.0 -9999.0 -9999.0 -9999.0 -9999.0 -9999.0 -9999.0 -9999.0 -9999.0 -9999.0 -9999.0 -9999.0 -9999.0 -9999.0 -9999.0 -9999.0 -9999.0 -9999.0 -9999.0 -9999.0 -9999.0 -9999.0 -9999.0 -9999.0 -9999.0 -9999.0 -9999.0 -9999.0 -9999.0 -9999.0 -9999.0 -9999.0 -9999.0 -9999.0 -9999.0 -9999.0 -9999.0 -9999.0 -9999.0 -9999.0 -9999.0 -9999.0 -9999.0 -9999.0 -9999.0 -9999.0 -9999.0 -9999.0 -9999.0 -9999.0 -9999.0 -9999.0 -9999.0 -9999.0 -9999.0 501.0 500.0 496.0 492.0 489.0 485.0 482.0 478.0 475.0 468.0 462.0 456.0 450.0 442.0 438.0 436.0 431.0 427.0 425.0 419.0 417.0 414.0 410.0 405.0 400.0 391.0 385.0 375.0 375.0 366.0 358.0 350.0 346.0 341.0 336.0 331.0 325.0 319.0 313.0 309.0 305.0 304.0 300.0 299.0 299.0 299.0 299.0 299.0 299.0 299.0 299.0 299.0 299.0 299.0 299.0 299.0 300.0 300.0 300.0 303.0 303.0 304.0 305.0 300.0 298.0 298.0 298.0 300.0 300.0 300.0 300.0 299.0 300.0 298.0 299.0 299.0 298.0 299.0 300.0 299.0 299.0 299.0 299.0 299.0 299.0 299.0 299.0 299.0 299.0 300.0 300.0 300.0 325.0 322.0 327.0 328.0 330.0 331.0 332.0 334.0 336.0 338.0 340.0 342.0 344.0 347.0 350.0 355.0 355.0 357.0 360.0 364.0 371.0 376.0 381.0 387.0 392.0 400.0 401.0 401.0 401.0 401.0 398.0 394.0 391.0 386.0 381.0 375.0 362.0 350.0 345.0 339.0 337.0 325.0 328.0 325.0 325.0 325.0 324.0 323.0 323.0 322.0 322.0 321.0 320.0 320.0 320.0 320.0 320.0 320.0 320.0 320.0 320.0 320.0 320.0 320.0 320.0 322.0 324.0 325.0 329.0 333.0 340.0 342.0 348.0 350.0 357.0 362.0 366.0 368.0 367.0 367.0 367.0 368.0 370.0 373.0 375.0 373.0 373.0 378.0 379.0 375.0 375.0 364.0 361.0 353.0 347.0 347.0 350.0 355.0 363.0 372.0 377.0 381.0 385.0 389.0 394.0 398.0 403.0 407.0 412.0 417.0 423.0 428.0 432.0 432.0 433.0 434.0 434.0 436.0 436.0 436.0 436.0 437.0 440.0 443.0 450.0 451.0 451.0 445.0 445.0 449.0 454.0 460.0 467.0 473.0 475.0 481.0 486.0 492.0 498.0 505.0 510.0 517.0 525.0 527.0 532.0 536.0 538.0 540.0 543.0 544.0 550.0 553.0 555.0 557.0 562.0 571.0 572.0 575.0 575.0 575.0 575.0 577.0 580.0 583.0 586.0 589.0 593.0 596.0
-9999.0 -9999.0 -9999.0 -9999.0 -9999.0 -9999.0 -9999.0 -9999.0 -9999.0 -9999.0 -9999.0 -9999.0 -9999.0 -9999.0 -9999.0 -9999.0 -9999.0 -9999.0 -9999.0 -9999.0 -9999.0 -9999.0 -9999.0 -9999.0 -9999.0 -9999.0 -9999.0 -9999.0 -9999.0 -9999.0 -9999.0 -9999.0 -9999.0 -9999.0 -9999.0 -9999.0 -9999.0 -9999.0 -9999.0 -9999.0 -9999.0 -9999.0 -9999.0 -9999.0 -9999.0 -9999.0 -9999.0 -9999.0 -9999.0 -9999.0 -9999.0 -9999.0 -9999.0 -9999.0 -9999.0 -9999.0 -9999.0 -9999.0 -9999.0 -9999.0 -9999.0 -9999.0 -9999.0 -9999.0 -9999.0 -9999.0 -9999.0 -9999.0 -9999.0 -9999.0 -9999.0 -9999.0 -9999.0 -9999.0 -9999.0 -9999.0 -9999.0 -9999.0 -9999.0 -9999.0 -9999.0 -9999.0 -9999.0 -9999.0 -9999.0 -9999.0 -9999.0 -9999.0 -9999.0 -9999.0 -9999.0 -9999.0 -9999.0 -9999.0 -9999.0 -9999.0 -9999.0 -9999.0 -9999.0 -9999.0 -9999.0 -9999.0 -9999.0 -9999.0 -9999.0 -9999.0 -9999.0 -9999.0 -9999.0 -9999.0 -9999.0 -9999.0 -9999.0 -9999.0 -9999.0 -9999.0 -9999.0 -9999.0 -9999.0 -9999.0 -9999.0 -9999.0 -9999.0 -9999.0 -9999.0 -9999.0 -9999.0 -9999.0 -9999.0 -9999.0 -9999.0 -9999.0 -9999.0 -9999.0 -9999.0 -9999.0 -9999.0 -9999.0 -9999.0 -9999.0 -9999.0 -9999.0 -9999.0 -9999.0 -9999.0 -9999.0 -9999.0 -9999.0 -9999.0 -9999.0 501.0 500.0 496.0 492.0 489.0 485.0 482.0 478.0 476.0 471.0 464.0 457.0 450.0 444.0 443.0 438.0 434.0 430.0 428.0 425.0 420.0 417.0 412.0 408.0 404.0 400.0 389.0 383.0 375.0 367.0 361.0 356.0 350.0 342.0 335.0 331.0 325.0 320.0 315.0 311.0 308.0 304.0 300.0 299.0 299.0 299.0 299.0 299.0 299.0 299.0 299.0 299.0 299.0 299.0 300.0 300.0 300.0 305.0 305.0 307.0 310.0 310.0 308.0 306.0 300.0 300.0 302.0 303.0 302.0 302.0 301.0 300.0 298.0 298.0 298.0 298.0 298.0 298.0 299.0 299.0 299.0 299.0 299.0 299.0 299.0 299.0 299.0 299.0 299.0 300.0 299.0 300.0 312.0 325.0 326.0 327.0 328.0 330.0 331.0 333.0 334.0 336.0 339.0 342.0 346.0 350.0 352.0 355.0 355.0 357.0 360.0 366.0 375.0 379.0 383.0 388.0 393.0 400.0 401.0 402.0 401.0 402.0 400.0 400.0 393.0 387.0 381.0 375.0 364.0 358.0 350.0 350.0 350.0 341.0 338.0 334.0 333.0 330.0 325.0 325.0 324.0 323.0 322.0 321.0 320.0 320.0 320.0 320.0 320.0 320.0 320.0 320.0 320.0 320.0 320.0 322.0 321.0 322.0 325.0 331.0 334.0 340.0 345.0 350.0 354.0 357.0 362.0 367.0 375.0 375.0 370.0 371.0 371.0 371.0 375.0 379.0 379.0 378.0 379.0 383.0 384.0 383.0 383.0 375.0 367.0 360.0 350.0 347.0 350.0 355.0 362.0 372.0 375.0 379.0 384.0 387.0 391.0 395.0 400.0 405.0 410.0 416.0 423.0 428.0 433.0 437.0 443.0 439.0 437.0 439.0 440.0 440.0 442.0 442.0 443.0 448.0 450.0 454.0 454.0 450.0 450.0 450.0 455.0 460.0 466.0 473.0 479.0 483.0 488.0 492.0 498.0 505.0 512.0 522.0 525.0 530.0 534.0 537.0 541.0 544.0 550.0 550.0 550.0 554.0 558.0 561.0 565.0 572.0 575.0 576.0 577.0 578.0 578.0 578.0 581.0 583.0 586.0 589.0 593.0 596.0
-9999.0 -9999.0 -9999.0 -9999.0 -9999.0 -9999.0 -9999.0 -9999.0 -9999.0 -9999.0 -9999.0 -9999.0 -9999.0 -9999.0 -9999.0 -9999.0 -9999.0 -9999.0 -9999.0 -9999.0 -9999.0 -9999.0 -9999.0 -9999.0 -9999.0 -9999.0 -9999.0 -9999.0 -9999.0 -9999.0 -9999.0 -9999.0 -9999.0 -9999.0 -9999.0 -9999.0 -9999.0 -9999.0 -9999.0 -9999.0 -9999.0 -9999.0 -9999.0 -9999.0 -9999.0 -9999.0 -9999.0 -9999.0 -9999.0 -9999.0 -9999.0 -9999.0 -9999.0 -9999.0 -9999.0 -9999.0 -9999.0 -9999.0 -9999.0 -9999.0 -9999.0 -9999.0 -9999.0 -9999.0 -9999.0 -9999.0 -9999.0 -9999.0 -9999.0 -9999.0 -9999.0 -9999.0 -9999.0 -9999.0 -9999.0 -9999.0 -9999.0 -9999.0 -9999.0 -9999.0 -9999.0 -9999.0 -9999.0 -9999.0 -9999.0 -9999.0 -9999.0 -9999.0 -9999.0 -9999.0 -9999.0 -9999.0 -9999.0 -9999.0 -9999.0 -9999.0 -9999.0 -9999.0 -9999.0 -9999.0 -9999.0 -9999.0 -9999.0 -9999.0 -9999.0 -9999.0 -9999.0 -9999.0 -9999.0 -9999.0 -9999.0 -9999.0 -9999.0 -9999.0 -9999.0 -9999.0 -9999.0 -9999.0 -9999.0 -9999.0 -9999.0 -9999.0 -9999.0 -9999.0 -9999.0 -9999.0 -9999.0 -9999.0 -9999.0 -9999.0 -9999.0 -9999.0 -9999.0 -9999.0 -9999.0 -9999.0 -9999.0 -9999.0 -9999.0 -9999.0 -9999.0 -9999.0 -9999.0 -9999.0 -9999.0 -9999.0 -9999.0 -9999.0 -9999.0 -9999.0 501.0 500.0 496.0 492.0 489.0 486.0 482.0 479.0 477.0 475.0 467.0 460.0 456.0 450.0 444.0 439.0 435.0 433.0 430.0 427.0 425.0 419.0 415.0 409.0 404.0 400.0 391.0 385.0 378.0 370.0 364.0 356.0 350.0 341.0 333.0 325.0 322.0 319.0 316.0 312.0 307.0 306.0 304.0 300.0 300.0 299.0 299.0 299.0 299.0 299.0 299.0 299.0 299.0 300.0 300.0 303.0 305.0 308.0 310.0 312.0 314.0 315.0 313.0 309.0 306.0 305.0 305.0 306.0 304.0 303.0 301.0 300.0 298.0 298.0 298.0 298.0 298.0 298.0 298.0 300.0 299.0 299.0 300.0 300.0 299.0 299.0 299.0 299.0 300.0 299.0 299.0 300.0 307.0 325.0 325.0 324.0 327.0 328.0 329.0 331.0 332.0 335.0 338.0 341.0 344.0 346.0 350.0 354.0 357.0 359.0 362.0 366.0 375.0 380.0 383.0 388.0 393.0 400.0 401.0 401.0 402.0 402.0 401.0 400.0 393.0 387.0 381.0 375.0 367.0 364.0 362.0 362.0 361.0 353.0 350.0 341.0 340.0 337.0 334.0 332.0 325.0 324.0 322.0 321.0 321.0 320.0 320.0 320.0 320.0 320.0 320.0 320.0 320.0 320.0 320.0 320.0 321.0 323.0 325.0 331.0 337.0 343.0 350.0 352.0 357.0 361.0 367.0 375.0 373.0 374.0 375.0 375.0 375.0 373.0 375.0 376.0 381.0 384.0 385.0 390.0 392.0 390.0 388.0 385.0 375.0 362.0 352.0 350.0 347.0 350.0 360.0 367.0 376.0 379.0 382.0 387.0 391.0 394.0 400.0 406.0 412.0 418.0 425.0 430.0 434.0 438.0 441.0 440.0 442.0 442.0 443.0 444.0 448.0 450.0 450.0 450.0 454.0 456.0 457.0 455.0 455.0 454.0 457.0 462.0 467.0 473.0 480.0 487.0 492.0 494.0 495.0 500.0 508.0 522.0 525.0 529.0 532.0 536.0 540.0 548.0 550.0 551.0 552.0 553.0 555.0 558.0 565.0 573.0 575.0 576.0 578.0 579.0 581.0 582.0 583.0 585.0 588.0 591.0 594.0 596.0
-9999.0 -9999.0 -9999.0 -9999.0 -9999.0 -9999.0 -9999.0 -9999.0 -9999.0 -9999.0 -9999.0 -9999.0 -9999.0 -9999.0 -9999.0 -9999.0 -9999.0 -9999.0 -9999.0 -9999.0 -9999.0 -9999.0 -9999.0 -9999.0 -9999.0 -9999.0 -9999.0 -9999.0 -9999.0 -9999.0 -9999.0 -9999.0 -9999.0 -9999.0 -9999.0 -9999.0 -9999.0 -9999.0 -9999.0 -9999.0 -9999.0 -9999.0 -9999.0 -9999.0 -9999.0 -9999.0 -9999.0 -9999.0 -9999.0 -9999.0 -9999.0 -9999.0 -9999.0 -9999.0 -9999.0 -9999.0 -9999.0 -9999.0 -9999.0 -9999.0 -9999.0 -9999.0 -9999.0 -9999.0 -9999.0 -9999.0 -9999.0 -9999.0 -9999.0 -9999.0 -9999.0 -9999.0 -9999.0 -9999.0 -9999.0 -9999.0 -9999.0 -9999.0 -9999.0 -9999.0 -9999.0 -9999.0 -9999.0 -9999.0 -9999.0 -9999.0 -9999.0 -9999.0 -9999.0 -9999.0 -9999.0 -9999.0 -9999.0 -9999.0 -9999.0 -9999.0 -9999.0 -9999.0 -9999.0 -9999.0 -9999.0 -9999.0 -9999.0 -9999.0 -9999.0 -9999.0 -9999.0 -9999.0 -9999.0 -9999.0 -9999.0 -9999.0 -9999.0 -9999.0 -9999.0 -9999.0 -9999.0 -9999.0 -9999.0 -9999.0 -9999.0 -9999.0 -9999.0 -9999.0 -9999.0 -9999.0 -9999.0 -9999.0 -9999.0 -9999.0 -9999.0 -9999.0 -9999.0 -9999.0 -9999.0 -9999.0 -9999.0 -9999.0 -9999.0 -9999.0 -9999.0 -9999.0 -9999.0 -9999.0 -9999.0 -9999.0 -9999.0 -9999.0 -9999.0 -9999.0 502.0 500.0 495.0 491.0 488.0 485.0 482.0 479.0 477.0 475.0 468.0 462.0 456.0 450.0 442.0 441.0 437.0 435.0 432.0 428.0 425.0 418.0 414.0 409.0 404.0 400.0 394.0 386.0 378.0 370.0 362.0 356.0 350.0 341.0 333.0 325.0 321.0 318.0 315.0 312.0 310.0 309.0 307.0 305.0 304.0 300.0 299.0 299.0 299.0 299.0 299.0 299.0 300.0 303.0 303.0 306.0 309.0 313.0 314.0 317.0 319.0 319.0 318.0 315.0 311.0 308.0 308.0 307.0 303.0 301.0 300.0 298.0 298.0 298.0 298.0 298.0 298.0 298.0 298.0 298.0 300.0 300.0 300.0 300.0 300.0 300.0 300.0 300.0 299.0 299.0 299.0 299.0 300.0 312.0 318.0 325.0 324.0 327.0 328.0 328.0 329.0 333.0 336.0 339.0 342.0 346.0 350.0 353.0 357.0 360.0 364.0 368.0 370.0 375.0 381.0 386.0 391.0 394.0 400.0 402.0 402.0 402.0 401.0 400.0 393.0 390.0 384.0 381.0 375.0 375.0 375.0 375.0 367.0 363.0 354.0 350.0 350.0 347.0 341.0 336.0 329.0 325.0 322.0 321.0 321.0 321.0 321.0 320.0 320.0 320.0 320.0 320.0 320.0 320.0 320.0 320.0 321.0 323.0 325.0 331.0 335.0 342.0 350.0 354.0 359.0 362.0 367.0 375.0 372.0 377.0 378.0 379.0 376.0 376.0 377.0 382.0 384.0 387.0 390.0 393.0 400.0 400.0 400.0 387.0 375.0 364.0 360.0 350.0 347.0 347.0 350.0 361.0 368.0 375.0 381.0 385.0 392.0 400.0 404.0 408.0 413.0 418.0 425.0 430.0 435.0 437.0 441.0 440.0 444.0 443.0 446.0 450.0 450.0 453.0 453.0 453.0 456.0 459.0 461.0 460.0 460.0 461.0 463.0 466.0 469.0 475.0 485.0 493.0 500.0 500.0 497.0 500.0 509.0 516.0 519.0 526.0 531.0 532.0 536.0 542.0 550.0 550.0 550.0 550.0 550.0 555.0 560.0 564.0 575.0 575.0 575.0 578.0 580.0 583.0 585.0 588.0 590.0 592.0 594.0 596.0
-9999.0 -9999.0 -9999.0 -9999.0 -9999.0 -9999.0 -9999.0 -9999.0 -9999.0 -9999.0 -9999.0 -9999.0 -9999.0 -9999.0 -9999.0 -9999.0 -9999.0 -9999.0 -9999.0 -9999.0 -9999.0 -9999.0 -9999.0 -9999.0 -9999.0 -9999.0 -9999.0 -9999.0 -9999.0 -9999.0 -9999.0 -9999.0 -9999.0 -9999.0 -9999.0 -9999.0 -9999.0 -9999.0 -9999.0 -9999.0 -9999.0 -9999.0 -9999.0 -9999.0 -9999.0 -9999.0 -9999.0 -9999.0 -9999.0 -9999.0 -9999.0 -9999.0 -9999.0 -9999.0 -9999.0 -9999.0 -9999.0 -9999.0 -9999.0 -9999.0 -9999.0 -9999.0 -9999.0 -9999.0 -9999.0 -9999.0 -9999.0 -9999.0 -9999.0 -9999.0 -9999.0 -9999.0 -9999.0 -9999.0 -9999.0 -9999.0 -9999.0 -9999.0 -9999.0 -9999.0 -9999.0 -9999.0 -9999.0 -9999.0 -9999.0 -9999.0 -9999.0 -9999.0 -9999.0 -9999.0 -9999.0 -9999.0 -9999.0 -9999.0 -9999.0 -9999.0 -9999.0 -9999.0 -9999.0 -9999.0 -9999.0 -9999.0 -9999.0 -9999.0 -9999.0 -9999.0 -9999.0 -9999.0 -9999.0 -9999.0 -9999.0 -9999.0 -9999.0 -9999.0 -9999.0 -9999.0 -9999.0 -9999.0 -9999.0 -9999.0 -9999.0 -9999.0 -9999.0 -9999.0 -9999.0 -9999.0 -9999.0 -9999.0 -9999.0 -9999.0 -9999.0 -9999.0 -9999.0 -9999.0 -9999.0 -9999.0 -9999.0 -9999.0 -9999.0 -9999.0 -9999.0 -9999.0 -9999.0 -9999.0 -9999.0 -9999.0 -9999.0 -9999.0 -9999.0 -9999.0 504.0 500.0 495.0 491.0 487.0 483.0 481.0 478.0 475.0 471.0 466.0 460.0 454.0 450.0 445.0 441.0 437.0 433.0 430.0 428.0 426.0 420.0 413.0 409.0 405.0 400.0 392.0 385.0 378.0 369.0 360.0 350.0 342.0 338.0 332.0 325.0 321.0 318.0 315.0 315.0 314.0 313.0 311.0 310.0 307.0 304.0 300.0 299.0 299.0 300.0 300.0 303.0 305.0 307.0 309.0 311.0 314.0 317.0 319.0 320.0 325.0 325.0 325.0 318.0 316.0 312.0 311.0 308.0 304.0 300.0 298.0 298.0 298.0 298.0 298.0 298.0 298.0 298.0 298.0 300.0 300.0 300.0 300.0 300.0 300.0 300.0 300.0 299.0 299.0 299.0 299.0 299.0 299.0 303.0 311.0 319.0 325.0 325.0 325.0 325.0 327.0 332.0 335.0 339.0 342.0 346.0 350.0 353.0 357.0 359.0 362.0 367.0 371.0 375.0 380.0 383.0 387.0 391.0 394.0 400.0 402.0 402.0 402.0 402.0 400.0 393.0 390.0 386.0 386.0 387.0 386.0 384.0 378.0 375.0 366.0 361.0 359.0 355.0 350.0 340.0 335.0 325.0 321.0 321.0 321.0 321.0 320.0 321.0 320.0 320.0 320.0 320.0 320.0 320.0 320.0 320.0 321.0 322.0 323.0 325.0 333.0 341.0 350.0 350.0 355.0 357.0 362.0 367.0 375.0 375.0 380.0 382.0 382.0 382.0 383.0 386.0 389.0 390.0 394.0 400.0 402.0 400.0 400.0 389.0 385.0 375.0 364.0 360.0 350.0 347.0 350.0 358.0 366.0 375.0 376.0 382.0 389.0 395.0 400.0 406.0 410.0 417.0 425.0 430.0 434.0 437.0 440.0 442.0 446.0 449.0 450.0 453.0 453.0 455.0 457.0 457.0 458.0 461.0 464.0 465.0 467.0 467.0 468.0 469.0 475.0 483.0 489.0 500.0 500.0 503.0 501.0 502.0 509.0 515.0 519.0 525.0 525.0 527.0 532.0 537.0 542.0 545.0 546.0 549.0 550.0 550.0 552.0 561.0 566.0 569.0 575.0 576.0 579.0 583.0 587.0 591.0 592.0 595.0 596.0 597.0
-9999.0 -9999.0 -9999.0 -9999.0 -9999.0 -9999.0 -9999.0 -9999.0 -9999.0 -9999.0 -9999.0 -9999.0 -9999.0 -9999.0 -9999.0 -9999.0 -9999.0 -9999.0 -9999.0 -9999.0 -9999.0 -9999.0 -9999.0 -9999.0 -9999.0 -9999.0 -9999.0 -9999.0 -9999.0 -9999.0 -9999.0 -9999.0 -9999.0 -9999.0 -9999.0 -9999.0 -9999.0 -9999.0 -9999.0 -9999.0 -9999.0 -9999.0 -9999.0 -9999.0 -9999.0 -9999.0 -9999.0 -9999.0 -9999.0 -9999.0 -9999.0 -9999.0 -9999.0 -9999.0 -9999.0 -9999.0 -9999.0 -9999.0 -9999.0 -9999.0 -9999.0 -9999.0 -9999.0 -9999.0 -9999.0 -9999.0 -9999.0 -9999.0 -9999.0 -9999.0 -9999.0 -9999.0 -9999.0 -9999.0 -9999.0 -9999.0 -9999.0 -9999.0 -9999.0 -9999.0 -9999.0 -9999.0 -9999.0 -9999.0 -9999.0 -9999.0 -9999.0 -9999.0 -9999.0 -9999.0 -9999.0 -9999.0 -9999.0 -9999.0 -9999.0 -9999.0 -9999.0 -9999.0 -9999.0 -9999.0 -9999.0 -9999.0 -9999.0 -9999.0 -9999.0 -9999.0 -9999.0 -9999.0 -9999.0 -9999.0 -9999.0 -9999.0 -9999.0 -9999.0 -9999.0 -9999.0 -9999.0 -9999.0 -9999.0 -9999.0 -9999.0 -9999.0 -9999.0 -9999.0 -9999.0 -9999.0 -9999.0 -9999.0 -9999.0 -9999.0 -9999.0 -9999.0 -9999.0 -9999.0 -9999.0 -9999.0 -9999.0 -9999.0 -9999.0 -9999.0 -9999.0 -9999.0 -9999.0 -9999.0 -9999.0 -9999.0 -9999.0 -9999.0 -9999.0 -9999.0 503.0 500.0 494.0 489.0 485.0 481.0 479.0 476.0 475.0 470.0 463.0 457.0 452.0 447.0 443.0 438.0 435.0 431.0 428.0 426.0 425.0 414.0 408.0 406.0 402.0 400.0 392.0 385.0 377.0 369.0 360.0 350.0 341.0 335.0 328.0 326.0 322.0 318.0 318.0 317.0 317.0 317.0 316.0 314.0 310.0 305.0 302.0 300.0 300.0 300.0 306.0 307.0 310.0 312.0 314.0 316.0 318.0 323.0 325.0 325.0 331.0 331.0 326.0 325.0 320.0 315.0 312.0 308.0 304.0 300.0 298.0 298.0 298.0 298.0 298.0 298.0 298.0 298.0 299.0 299.0 300.0 300.0 300.0 300.0 300.0 300.0 299.0 299.0 299.0 299.0 299.0 299.0 299.0 300.0 308.0 314.0 317.0 319.0 320.0 325.0 328.0 332.0 335.0 339.0 342.0 346.0 350.0 353.0 357.0 360.0 362.0 365.0 370.0 373.0 375.0 380.0 383.0 388.0 392.0 398.0 399.0 403.0 404.0 402.0 401.0 400.0 394.0 392.0 397.0 400.0 394.0 392.0 388.0 378.0 375.0 372.0 365.0 363.0 356.0 350.0 339.0 333.0 325.0 322.0 321.0 322.0 321.0 321.0 321.0 320.0 320.0 320.0 320.0 320.0 320.0 320.0 321.0 322.0 323.0 325.0 332.0 336.0 341.0 350.0 350.0 350.0 357.0 364.0 368.0 375.0 380.0 385.0 387.0 388.0 390.0 392.0 395.0 394.0 398.0 400.0 400.0 400.0 400.0 400.0 389.0 383.0 375.0 364.0 358.0 350.0 350.0 358.0 365.0 373.0 375.0 381.0 387.0 391.0 396.0 400.0 408.0 416.0 425.0 427.0 431.0 433.0 438.0 441.0 445.0 450.0 452.0 455.0 457.0 458.0 460.0 460.0 461.0 463.0 466.0 469.0 473.0 475.0 475.0 470.0 475.0 483.0 491.0 500.0 503.0 506.0 508.0 511.0 513.0 522.0 525.0 525.0 525.0 527.0 525.0 536.0 541.0 544.0 547.0 549.0 552.0 550.0 550.0 558.0 562.0 566.0 570.0 575.0 580.0 585.0 589.0 593.0 595.0 597.0 600.0 600.0
-9999.0 -9999.0 -9999.0 -9999.0 -9999.0 -9999.0 -9999.0 -9999.0 -9999.0 -9999.0 -9999.0 -9999.0 -9999.0 -9999.0 -9999.0 -9999.0 -9999.0 -9999.0 -9999.0 -9999.0 -9999.0 -9999.0 -9999.0 -9999.0 -9999.0 -9999.0 -9999.0 -9999.0 -9999.0 -9999.0 -9999.0 -9999.0 -9999.0 -9999.0 -9999.0 -9999.0 -9999.0 -9999.0 -9999.0 -9999.0 -9999.0 -9999.0 -9999.0 -9999.0 -9999.0 -9999.0 -9999.0 -9999.0 -9999.0 -9999.0 -9999.0 -9999.0 -9999.0 -9999.0 -9999.0 -9999.0 -9999.0 -9999.0 -9999.0 -9999.0 -9999.0 -9999.0 -9999.0 -9999.0 -9999.0 -9999.0 -9999.0 -9999.0 -9999.0 -9999.0 -9999.0 -9999.0 -9999.0 -9999.0 -9999.0 -9999.0 -9999.0 -9999.0 -9999.0 -9999.0 -9999.0 -9999.0 -9999.0 -9999.0 -9999.0 -9999.0 -9999.0 -9999.0 -9999.0 -9999.0 -9999.0 -9999.0 -9999.0 -9999.0 -9999.0 -9999.0 -9999.0 -9999.0 -9999.0 -9999.0 -9999.0 -9999.0 -9999.0 -9999.0 -9999.0 -9999.0 -9999.0 -9999.0 -9999.0 -9999.0 -9999.0 -9999.0 -9999.0 -9999.0 -9999.0 -9999.0 -9999.0 -9999.0 -9999.0 -9999.0 -9999.0 -9999.0 -9999.0 -9999.0 -9999.0 -9999.0 -9999.0 -9999.0 -9999.0 -9999.0 -9999.0 -9999.0 -9999.0 -9999.0 -9999.0 -9999.0 -9999.0 -9999.0 -9999.0 -9999.0 -9999.0 -9999.0 -9999.0 -9999.0 -9999.0 -9999.0 -9999.0 -9999.0 -9999.0 -9999.0 501.0 500.0 493.0 488.0 483.0 480.0 476.0 475.0 467.0 464.0 459.0 453.0 447.0 443.0 440.0 436.0 432.0 429.0 425.0 425.0 415.0 410.0 400.0 400.0 398.0 393.0 390.0 384.0 377.0 369.0 360.0 350.0 343.0 336.0 326.0 327.0 324.0 321.0 320.0 320.0 321.0 322.0 320.0 317.0 312.0 308.0 305.0 305.0 307.0 308.0 310.0 313.0 316.0 317.0 319.0 322.0 323.0 328.0 329.0 333.0 335.0 335.0 332.0 327.0 321.0 318.0 314.0 309.0 304.0 300.0 298.0 298.0 298.0 298.0 298.0 298.0 299.0 299.0 299.0 299.0 300.0 300.0 300.0 300.0 300.0 300.0 300.0 300.0 300.0 299.0 299.0 299.0 299.0 300.0 303.0 309.0 314.0 315.0 320.0 325.0 328.0 332.0 335.0 338.0 342.0 346.0 350.0 352.0 357.0 360.0 363.0 366.0 369.0 371.0 373.0 375.0 380.0 384.0 389.0 394.0 400.0 403.0 405.0 405.0 405.0 405.0 400.0 400.0 400.0 402.0 401.0 400.0 400.0 388.0 383.0 378.0 375.0 375.0 362.0 350.0 341.0 333.0 327.0 323.0 322.0 322.0 322.0 321.0 322.0 321.0 321.0 321.0 320.0 320.0 320.0 320.0 321.0 322.0 322.0 325.0 325.0 329.0 335.0 342.0 343.0 350.0 356.0 362.0 368.0 375.0 382.0 388.0 392.0 393.0 395.0 400.0 400.0 400.0 402.0 401.0 400.0 401.0 401.0 400.0 391.0 383.0 375.0 366.0 361.0 353.0 352.0 358.0 366.0 375.0 378.0 382.0 387.0 392.0 395.0 400.0 407.0 414.0 418.0 425.0 425.0 431.0 435.0 440.0 443.0 445.0 450.0 454.0 456.0 459.0 462.0 464.0 464.0 466.0 467.0 470.0 475.0 478.0 477.0 475.0 475.0 482.0 489.0 493.0 500.0 506.0 512.0 516.0 522.0 527.0 527.0 529.0 529.0 525.0 537.0 547.0 550.0 550.0 550.0 550.0 552.0 562.0 558.0 562.0 565.0 568.0 570.0 575.0 581.0 586.0 591.0 594.0 600.0 600.0 602.0 603.0
-9999.0 -9999.0 -9999.0 -9999.0 -9999.0 -9999.0 -9999.0 -9999.0 -9999.0 -9999.0 -9999.0 -9999.0 -9999.0 -9999.0 -9999.0 -9999.0 -9999.0 -9999.0 -9999.0 -9999.0 -9999.0 -9999.0 -9999.0 -9999.0 -9999.0 -9999.0 -9999.0 -9999.0 -9999.0 -9999.0 -9999.0 -9999.0 -9999.0 -9999.0 -9999.0 -9999.0 -9999.0 -9999.0 -9999.0 -9999.0 -9999.0 -9999.0 -9999.0 -9999.0 -9999.0 -9999.0 -9999.0 -9999.0 -9999.0 -9999.0 -9999.0 -9999.0 -9999.0 -9999.0 -9999.0 -9999.0 -9999.0 -9999.0 -9999.0 -9999.0 -9999.0 -9999.0 -9999.0 -9999.0 -9999.0 -9999.0 -9999.0 -9999.0 -9999.0 -9999.0 -9999.0 -9999.0 -9999.0 -9999.0 -9999.0 -9999.0 -9999.0 -9999.0 -9999.0 -9999.0 -9999.0 -9999.0 -9999.0 -9999.0 -9999.0 -9999.0 -9999.0 -9999.0 -9999.0 -9999.0 -9999.0 -9999.0 -9999.0 -9999.0 -9999.0 -9999.0 -9999.0 -9999.0 -9999.0 -9999.0 -9999.0 -9999.0 -9999.0 -9999.0 -9999.0 -9999.0 -9999.0 -9999.0 -9999.0 -9999.0 -9999.0 -9999.0 -9999.0 -9999.0 -9999.0 -9999.0 -9999.0 -9999.0 -9999.0 -9999.0 -9999.0 -9999.0 -9999.0 -9999.0 -9999.0 -9999.0 -9999.0 -9999.0 -9999.0 -9999.0 -9999.0 -9999.0 -9999.0 -9999.0 -9999.0 -9999.0 -9999.0 -9999.0 -9999.0 -9999.0 -9999.0 -9999.0 -9999.0 -9999.0 -9999.0 -9999.0 -9999.0 -9999.0 -9999.0 501.0 500.0 496.0 491.0 485.0 481.0 475.0 471.0 467.0 462.0 459.0 453.0 447.0 444.0 441.0 437.0 433.0 429.0 425.0 425.0 417.0 412.0 403.0 402.0 399.0 395.0 392.0 388.0 384.0 377.0 370.0 363.0 358.0 353.0 335.0 326.0 330.0 327.0 324.0 323.0 325.0 325.0 327.0 325.0 319.0 315.0 312.0 310.0 310.0 313.0 315.0 317.0 316.0 322.0 323.0 325.0 325.0 329.0 334.0 337.0 340.0 342.0 341.0 336.0 331.0 325.0 320.0 315.0 310.0 305.0 300.0 300.0 298.0 298.0 298.0 300.0 299.0 299.0 299.0 299.0 299.0 300.0 300.0 303.0 306.0 307.0 308.0 308.0 308.0 302.0 300.0 300.0 299.0 299.0 299.0 303.0 307.0 311.0 315.0 320.0 325.0 328.0 330.0 333.0 337.0 341.0 345.0 350.0 353.0 355.0 358.0 361.0 364.0 367.0 368.0 371.0 373.0 378.0 382.0 388.0 393.0 400.0 403.0 406.0 408.0 409.0 408.0 406.0 405.0 404.0 404.0 403.0 401.0 400.0 391.0 386.0 381.0 376.0 369.0 361.0 350.0 341.0 335.0 327.0 324.0 323.0 323.0 321.0 322.0 323.0 322.0 322.0 322.0 321.0 321.0 321.0 321.0 321.0 322.0 322.0 322.0 324.0 325.0 333.0 340.0 348.0 350.0 357.0 364.0 368.0 375.0 383.0 390.0 398.0 399.0 400.0 402.0 402.0 402.0 401.0 402.0 401.0 401.0 401.0 400.0 392.0 385.0 381.0 375.0 367.0 365.0 363.0 361.0 367.0 375.0 380.0 385.0 390.0 394.0 400.0 405.0 408.0 413.0 419.0 425.0 425.0 431.0 436.0 441.0 445.0 447.0 449.0 450.0 455.0 460.0 464.0 466.0 467.0 469.0 470.0 471.0 475.0 480.0 482.0 481.0 482.0 483.0 488.0 492.0 500.0 506.0 509.0 516.0 525.0 528.0 531.0 534.0 534.0 537.0 550.0 552.0 556.0 557.0 560.0 562.0 562.0 575.0 571.0 572.0 572.0 573.0 573.0 575.0 581.0 585.0 592.0 600.0 599.0 601.0 602.0 603.0
-9999.0 -9999.0 -9999.0 -9999.0 -9999.0 -9999.0 -9999.0 -9999.0 -9999.0 -9999.0 -9999.0 -9999.0 -9999.0 -9999.0 -9999.0 -9999.0 -9999.0 -9999.0 -9999.0 -9999.0 -9999.0 -9999.0 -9999.0 -9999.0 -9999.0 -9999.0 -9999.0 -9999.0 -9999.0 -9999.0 -9999.0 -9999.0 -9999.0 -9999.0 -9999.0 -9999.0 -9999.0 -9999.0 -9999.0 -9999.0 -9999.0 -9999.0 -9999.0 -9999.0 -9999.0 -9999.0 -9999.0 -9999.0 -9999.0 -9999.0 -9999.0 -9999.0 -9999.0 -9999.0 -9999.0 -9999.0 -9999.0 -9999.0 -9999.0 -9999.0 -9999.0 -9999.0 -9999.0 -9999.0 -9999.0 -9999.0 -9999.0 -9999.0 -9999.0 -9999.0 -9999.0 -9999.0 -9999.0 -9999.0 -9999.0 -9999.0 -9999.0 -9999.0 -9999.0 -9999.0 -9999.0 -9999.0 -9999.0 -9999.0 -9999.0 -9999.0 -9999.0 -9999.0 -9999.0 -9999.0 -9999.0 -9999.0 -9999.0 -9999.0 -9999.0 -9999.0 -9999.0 -9999.0 -9999.0 -9999.0 -9999.0 -9999.0 -9999.0 -9999.0 -9999.0 -9999.0 -9999.0 -9999.0 -9999.0 -9999.0 -9999.0 -9999.0 -9999.0 -9999.0 -9999.0 -9999.0 -9999.0 -9999.0 -9999.0 -9999.0 -9999.0 -9999.0 -9999.0 -9999.0 -9999.0 -9999.0 -9999.0 -9999.0 -9999.0 -9999.0 -9999.0 -9999.0 -9999.0 -9999.0 -9999.0 -9999.0 -9999.0 -9999.0 -9999.0 -9999.0 -9999.0 -9999.0 -9999.0 -9999.0 -9999.0 -9999.0 -9999.0 -9999.0 500.0 501.0 500.0 496.0 490.0 484.0 477.0 472.0 467.0 463.0 457.0 453.0 449.0 446.0 442.0 439.0 436.0 433.0 429.0 425.0 421.0 416.0 411.0 408.0 403.0 400.0 400.0 394.0 392.0 387.0 378.0 375.0 367.0 365.0 362.0 355.0 350.0 330.0 325.0 324.0 329.0 331.0 331.0 330.0 327.0 322.0 318.0 314.0 313.0 315.0 317.0 322.0 325.0 322.0 327.0 328.0 331.0 332.0 336.0 341.0 342.0 350.0 350.0 345.0 338.0 332.0 327.0 320.0 317.0 312.0 308.0 305.0 300.0 298.0 298.0 298.0 299.0 300.0 300.0 299.0 300.0 300.0 300.0 300.0 305.0 310.0 314.0 316.0 316.0 315.0 311.0 309.0 309.0 303.0 302.0 300.0 305.0 307.0 311.0 315.0 319.0 321.0 325.0 329.0 332.0 336.0 340.0 344.0 348.0 351.0 353.0 357.0 360.0 363.0 365.0 367.0 369.0 372.0 375.0 381.0 387.0 393.0 400.0 403.0 407.0 410.0 412.0 412.0 411.0 410.0 407.0 406.0 403.0 400.0 400.0 391.0 384.0 377.0 375.0 366.0 359.0 352.0 344.0 336.0 327.0 323.0 322.0 322.0 323.0 323.0 324.0 323.0 323.0 323.0 322.0 321.0 322.0 321.0 321.0 322.0 322.0 322.0 322.0 325.0 333.0 341.0 350.0 356.0 360.0 367.0 375.0 381.0 384.0 390.0 400.0 401.0 401.0 402.0 402.0 402.0 402.0 402.0 402.0 402.0 401.0 400.0 393.0 387.0 381.0 376.0 376.0 376.0 375.0 366.0 371.0 375.0 380.0 386.0 392.0 398.0 402.0 405.0 410.0 414.0 420.0 425.0 428.0 432.0 438.0 443.0 450.0 450.0 452.0 454.0 457.0 462.0 467.0 470.0 470.0 472.0 474.0 474.0 475.0 480.0 485.0 488.0 490.0 489.0 489.0 493.0 496.0 500.0 505.0 512.0 525.0 525.0 531.0 534.0 539.0 541.0 550.0 554.0 559.0 562.0 566.0 575.0 575.0 576.0 578.0 577.0 579.0 579.0 575.0 575.0 575.0 583.0 591.0 600.0 601.0 602.0 604.0 605.0
-9999.0 -9999.0 -9999.0 -9999.0 -9999.0 -9999.0 -9999.0 -9999.0 -9999.0 -9999.0 -9999.0 -9999.0 -9999.0 -9999.0 -9999.0 -9999.0 -9999.0 -9999.0 -9999.0 -9999.0 -9999.0 -9999.0 -9999.0 -9999.0 -9999.0 -9999.0 -9999.0 -9999.0 -9999.0 -9999.0 -9999.0 -9999.0 -9999.0 -9999.0 -9999.0 -9999.0 -9999.0 -9999.0 -9999.0 -9999.0 -9999.0 -9999.0 -9999.0 -9999.0 -9999.0 -9999.0 -9999.0 -9999.0 -9999.0 -9999.0 -9999.0 -9999.0 -9999.0 -9999.0 -9999.0 -9999.0 -9999.0 -9999.0 -9999.0 -9999.0 -9999.0 -9999.0 -9999.0 -9999.0 -9999.0 -9999.0 -9999.0 -9999.0 -9999.0 -9999.0 -9999.0 -9999.0 -9999.0 -9999.0 -9999.0 -9999.0 -9999.0 -9999.0 -9999.0 -9999.0 -9999.0 -9999.0 -9999.0 -9999.0 -9999.0 -9999.0 -9999.0 -9999.0 -9999.0 -9999.0 -9999.0 -9999.0 -9999.0 -9999.0 -9999.0 -9999.0 -9999.0 -9999.0 -9999.0 -9999.0 -9999.0 -9999.0 -9999.0 -9999.0 -9999.0 -9999.0 -9999.0 -9999.0 -9999.0 -9999.0 -9999.0 -9999.0 -9999.0 -9999.0 -9999.0 -9999.0 -9999.0 -9999.0 -9999.0 -9999.0 -9999.0 -9999.0 -9999.0 -9999.0 -9999.0 -9999.0 -9999.0 -9999.0 -9999.0 -9999.0 -9999.0 -9999.0 -9999.0 -9999.0 -9999.0 -9999.0 -9999.0 -9999.0 -9999.0 -9999.0 -9999.0 -9999.0 -9999.0 -9999.0 -9999.0 -9999.0 -9999.0 -9999.0 501.0 499.0 500.0 493.0 489.0 483.0 477.0 472.0 466.0 461.0 456.0 450.0 448.0 447.0 445.0 441.0 437.0 433.0 430.0 427.0 424.0 419.0 417.0 414.0 410.0 407.0 406.0 400.0 400.0 390.0 386.0 382.0 375.0 375.0 368.0 367.0 355.0 350.0 337.0 332.0 336.0 337.0 336.0 333.0 330.0 325.0 319.0 316.0 315.0 318.0 322.0 326.0 328.0 327.0 330.0 332.0 335.0 339.0 342.0 350.0 350.0 351.0 350.0 345.0 339.0 334.0 331.0 325.0 319.0 316.0 311.0 306.0 301.0 300.0 299.0 298.0 299.0 299.0 300.0 299.0 300.0 300.0 300.0 300.0 306.0 312.0 317.0 325.0 325.0 325.0 319.0 319.0 318.0 313.0 312.0 307.0 308.0 310.0 311.0 314.0 317.0 320.0 324.0 327.0 330.0 333.0 337.0 341.0 345.0 350.0 353.0 356.0 358.0 360.0 363.0 366.0 369.0 373.0 375.0 381.0 387.0 393.0 400.0 403.0 407.0 411.0 414.0 418.0 416.0 413.0 409.0 406.0 403.0 400.0 393.0 389.0 383.0 377.0 370.0 366.0 360.0 355.0 350.0 337.0 325.0 322.0 322.0 322.0 323.0 324.0 324.0 325.0 325.0 323.0 323.0 323.0 321.0 321.0 321.0 321.0 322.0 322.0 322.0 325.0 333.0 341.0 350.0 356.0 363.0 368.0 375.0 382.0 384.0 387.0 397.0 398.0 401.0 401.0 401.0 402.0 402.0 404.0 402.0 402.0 400.0 396.0 392.0 387.0 385.0 384.0 384.0 382.0 375.0 378.0 374.0 375.0 380.0 383.0 389.0 393.0 400.0 405.0 410.0 415.0 420.0 425.0 431.0 435.0 440.0 444.0 450.0 453.0 454.0 457.0 460.0 464.0 469.0 475.0 475.0 476.0 477.0 478.0 479.0 483.0 489.0 492.0 498.0 493.0 494.0 495.0 496.0 499.0 500.0 509.0 516.0 519.0 526.0 533.0 540.0 548.0 550.0 554.0 560.0 565.0 568.0 575.0 579.0 580.0 582.0 584.0 585.0 584.0 583.0 582.0 581.0 584.0 590.0 593.0 600.0 602.0 603.0 605.0
-9999.0 -9999.0 -9999.0 -9999.0 -9999.0 -9999.0 -9999.0 -9999.0 -9999.0 -9999.0 -9999.0 -9999.0 -9999.0 -9999.0 -9999.0 -9999.0 -9999.0 -9999.0 -9999.0 -9999.0 -9999.0 -9999.0 -9999.0 -9999.0 -9999.0 -9999.0 -9999.0 -9999.0 -9999.0 -9999.0 -9999.0 -9999.0 -9999.0 -9999.0 -9999.0 -9999.0 -9999.0 -9999.0 -9999.0 -9999.0 -9999.0 -9999.0 -9999.0 -9999.0 -9999.0 -9999.0 -9999.0 -9999.0 -9999.0 -9999.0 -9999.0 -9999.0 -9999.0 -9999.0 -9999.0 -9999.0 -9999.0 -9999.0 -9999.0 -9999.0 -9999.0 -9999.0 -9999.0 -9999.0 -9999.0 -9999.0 -9999.0 -9999.0 -9999.0 -9999.0 -9999.0 -9999.0 -9999.0 -9999.0 -9999.0 -9999.0 -9999.0 -9999.0 -9999.0 -9999.0 -9999.0 -9999.0 -9999.0 -9999.0 -9999.0 -9999.0 -9999.0 -9999.0 -9999.0 -9999.0 -9999.0 -9999.0 -9999.0 -9999.0 -9999.0 -9999.0 -9999.0 -9999.0 -9999.0 -9999.0 -9999.0 -9999.0 -9999.0 -9999.0 -9999.0 -9999.0 -9999.0 -9999.0 -9999.0 -9999.0 -9999.0 -9999.0 -9999.0 -9999.0 -9999.0 -9999.0 -9999.0 -9999.0 -9999.0 -9999.0 -9999.0 -9999.0 -9999.0 -9999.0 -9999.0 -9999.0 -9999.0 -9999.0 -9999.0 -9999.0 -9999.0 -9999.0 -9999.0 -9999.0 -9999.0 -9999.0 -9999.0 -9999.0 -9999.0 -9999.0 -9999.0 -9999.0 -9999.0 -9999.0 -9999.0 -9999.0 -9999.0 -9999.0 501.0 500.0 495.0 490.0 485.0 480.0 475.0 469.0 464.0 460.0 456.0 449.0 448.0 447.0 445.0 442.0 441.0 436.0 433.0 433.0 425.0 425.0 425.0 417.0 416.0 412.0 409.0 404.0 400.0 396.0 391.0 387.0 382.0 381.0 377.0 375.0 367.0 361.0 350.0 345.0 345.0 342.0 341.0 336.0 331.0 325.0 320.0 318.0 317.0 319.0 323.0 326.0 330.0 330.0 332.0 334.0 339.0 343.0 350.0 350.0 352.0 351.0 350.0 346.0 341.0 336.0 332.0 326.0 325.0 318.0 314.0 309.0 304.0 300.0 299.0 298.0 299.0 299.0 299.0 300.0 300.0 300.0 300.0 300.0 304.0 312.0 321.0 325.0 327.0 327.0 326.0 326.0 325.0 325.0 319.0 314.0 313.0 312.0 314.0 314.0 316.0 319.0 321.0 323.0 327.0 331.0 335.0 339.0 344.0 350.0 353.0 353.0 356.0 359.0 362.0 365.0 369.0 373.0 378.0 382.0 388.0 393.0 400.0 403.0 407.0 410.0 413.0 415.0 414.0 412.0 408.0 404.0 401.0 396.0 392.0 386.0 381.0 377.0 370.0 364.0 358.0 352.0 342.0 335.0 325.0 322.0 322.0 322.0 323.0 325.0 325.0 325.0 325.0 325.0 324.0 325.0 322.0 321.0 321.0 321.0 322.0 321.0 322.0 325.0 333.0 341.0 350.0 357.0 365.0 372.0 377.0 383.0 383.0 385.0 392.0 399.0 400.0 401.0 401.0 401.0 402.0 402.0 403.0 402.0 400.0 397.0 394.0 391.0 390.0 391.0 391.0 387.0 379.0 384.0 384.0 381.0 375.0 383.0 390.0 398.0 400.0 406.0 411.0 416.0 420.0 425.0 431.0 438.0 443.0 450.0 453.0 454.0 457.0 459.0 462.0 466.0 470.0 475.0 479.0 479.0 481.0 483.0 484.0 487.0 491.0 498.0 500.0 500.0 500.0 500.0 500.0 500.0 500.0 508.0 512.0 517.0 525.0 531.0 538.0 543.0 550.0 555.0 559.0 563.0 569.0 575.0 577.0 581.0 586.0 589.0 592.0 592.0 590.0 588.0 587.0 588.0 591.0 594.0 599.0 601.0 603.0 606.0
-9999.0 -9999.0 -9999.0 -9999.0 -9999.0 -9999.0 -9999.0 -9999.0 -9999.0 -9999.0 -9999.0 -9999.0 -9999.0 -9999.0 -9999.0 -9999.0 -9999.0 -9999.0 -9999.0 -9999.0 -9999.0 -9999.0 -9999.0 -9999.0 -9999.0 -9999.0 -9999.0 -9999.0 -9999.0 -9999.0 -9999.0 -9999.0 -9999.0 -9999.0 -9999.0 -9999.0 -9999.0 -9999.0 -9999.0 -9999.0 -9999.0 -9999.0 -9999.0 -9999.0 -9999.0 -9999.0 -9999.0 -9999.0 -9999.0 -9999.0 -9999.0 -9999.0 -9999.0 -9999.0 -9999.0 -9999.0 -9999.0 -9999.0 -9999.0 -9999.0 -9999.0 -9999.0 -9999.0 -9999.0 -9999.0 -9999.0 -9999.0 -9999.0 -9999.0 -9999.0 -9999.0 -9999.0 -9999.0 -9999.0 -9999.0 -9999.0 -9999.0 -9999.0 -9999.0 -9999.0 -9999.0 -9999.0 -9999.0 -9999.0 -9999.0 -9999.0 -9999.0 -9999.0 -9999.0 -9999.0 -9999.0 -9999.0 -9999.0 -9999.0 -9999.0 -9999.0 -9999.0 -9999.0 -9999.0 -9999.0 -9999.0 -9999.0 -9999.0 -9999.0 -9999.0 -9999.0 -9999.0 -9999.0 -9999.0 -9999.0 -9999.0 -9999.0 -9999.0 -9999.0 -9999.0 -9999.0 -9999.0 -9999.0 -9999.0 -9999.0 -9999.0 -9999.0 -9999.0 -9999.0 -9999.0 -9999.0 -9999.0 -9999.0 -9999.0 -9999.0 -9999.0 -9999.0 -9999.0 -9999.0 -9999.0 -9999.0 -9999.0 -9999.0 -9999.0 -9999.0 -9999.0 -9999.0 -9999.0 -9999.0 -9999.0 -9999.0 -9999.0 502.0 501.0 500.0 495.0 490.0 485.0 480.0 475.0 470.0 468.0 465.0 459.0 453.0 449.0 448.0 447.0 445.0 444.0 442.0 439.0 436.0 433.0 430.0 427.0 425.0 425.0 417.0 415.0 410.0 407.0 403.0 396.0 391.0 388.0 383.0 380.0 376.0 375.0 368.0 362.0 355.0 354.0 347.0 342.0 338.0 332.0 325.0 322.0 319.0 319.0 321.0 325.0 328.0 331.0 332.0 334.0 338.0 342.0 346.0 350.0 352.0 354.0 350.0 346.0 343.0 340.0 336.0 331.0 328.0 326.0 321.0 315.0 311.0 305.0 301.0 299.0 299.0 299.0 299.0 299.0 299.0 299.0 300.0 299.0 300.0 304.0 311.0 321.0 326.0 328.0 329.0 329.0 329.0 328.0 325.0 325.0 318.0 316.0 316.0 316.0 316.0 317.0 318.0 320.0 322.0 325.0 329.0 333.0 337.0 341.0 345.0 350.0 351.0 355.0 358.0 362.0 365.0 369.0 373.0 377.0 383.0 388.0 393.0 398.0 403.0 406.0 408.0 410.0 412.0 411.0 409.0 406.0 404.0 401.0 395.0 389.0 384.0 380.0 375.0 367.0 363.0 357.0 352.0 341.0 329.0 322.0 322.0 322.0 322.0 322.0 325.0 327.0 325.0 325.0 325.0 327.0 326.0 322.0 321.0 321.0 321.0 321.0 321.0 322.0 325.0 330.0 340.0 350.0 357.0 364.0 372.0 377.0 379.0 381.0 382.0 388.0 397.0 397.0 397.0 400.0 400.0 402.0 402.0 403.0 404.0 403.0 400.0 400.0 396.0 395.0 400.0 400.0 394.0 387.0 389.0 390.0 384.0 375.0 383.0 391.0 400.0 405.0 408.0 414.0 418.0 425.0 430.0 433.0 440.0 448.0 452.0 454.0 457.0 460.0 462.0 464.0 467.0 470.0 475.0 479.0 483.0 485.0 487.0 489.0 492.0 493.0 498.0 502.0 505.0 506.0 507.0 510.0 512.0 512.0 514.0 514.0 517.0 525.0 531.0 537.0 542.0 548.0 552.0 556.0 562.0 565.0 568.0 575.0 581.0 587.0 592.0 598.0 600.0 598.0 593.0 593.0 593.0 594.0 600.0 600.0 603.0 605.0 606.0
-9999.0 -9999.0 -9999.0 -9999.0 -9999.0 -9999.0 -9999.0 -9999.0 -9999.0 -9999.0 -9999.0 -9999.0 -9999.0 -9999.0 -9999.0 -9999.0 -9999.0 -9999.0 -9999.0 -9999.0 -9999.0 -9999.0 -9999.0 -9999.0 -9999.0 -9999.0 -9999.0 -9999.0 -9999.0 -9999.0 -9999.0 -9999.0 -9999.0 -9999.0 -9999.0 -9999.0 -9999.0 -9999.0 -9999.0 -9999.0 -9999.0 -9999.0 -9999.0 -9999.0 -9999.0 -9999.0 -9999.0 -9999.0 -9999.0 -9999.0 -9999.0 -9999.0 -9999.0 -9999.0 -9999.0 -9999.0 -9999.0 -9999.0 -9999.0 -9999.0 -9999.0 -9999.0 -9999.0 -9999.0 -9999.0 -9999.0 -9999.0 -9999.0 -9999.0 -9999.0 -9999.0 -9999.0 -9999.0 -9999.0 -9999.0 -9999.0 -9999.0 -9999.0 -9999.0 -9999.0 -9999.0 -9999.0 -9999.0 -9999.0 -9999.0 -9999.0 -9999.0 -9999.0 -9999.0 -9999.0 -9999.0 -9999.0 -9999.0 -9999.0 -9999.0 -9999.0 -9999.0 -9999.0 -9999.0 -9999.0 -9999.0 -9999.0 -9999.0 -9999.0 -9999.0 -9999.0 -9999.0 -9999.0 -9999.0 -9999.0 -9999.0 -9999.0 -9999.0 -9999.0 -9999.0 -9999.0 -9999.0 -9999.0 -9999.0 -9999.0 -9999.0 -9999.0 -9999.0 -9999.0 -9999.0 -9999.0 -9999.0 -9999.0 -9999.0 -9999.0 -9999.0 -9999.0 -9999.0 -9999.0 -9999.0 -9999.0 -9999.0 -9999.0 -9999.0 -9999.0 -9999.0 -9999.0 -9999.0 -9999.0 -9999.0 -9999.0 504.0 503.0 502.0 500.0 495.0 490.0 484.0 480.0 476.0 475.0 475.0 468.0 463.0 457.0 452.0 451.0 450.0 450.0 445.0 440.0 440.0 440.0 438.0 435.0 431.0 429.0 428.0 425.0 421.0 416.0 411.0 406.0 400.0 397.0 391.0 387.0 383.0 380.0 379.0 375.0 371.0 362.0 358.0 353.0 350.0 342.0 335.0 329.0 325.0 323.0 322.0 322.0 325.0 327.0 330.0 333.0 337.0 339.0 342.0 345.0 350.0 350.0 350.0 345.0 342.0 338.0 335.0 332.0 329.0 326.0 325.0 318.0 313.0 308.0 305.0 300.0 299.0 299.0 299.0 299.0 299.0 299.0 299.0 299.0 299.0 299.0 303.0 313.0 325.0 328.0 330.0 331.0 332.0 333.0 332.0 330.0 327.0 323.0 323.0 320.0 319.0 318.0 318.0 319.0 321.0 322.0 324.0 327.0 331.0 336.0 340.0 345.0 348.0 351.0 355.0 358.0 362.0 365.0 369.0 373.0 378.0 383.0 387.0 392.0 398.0 401.0 403.0 405.0 408.0 409.0 409.0 407.0 404.0 401.0 400.0 393.0 388.0 382.0 377.0 369.0 364.0 359.0 356.0 350.0 338.0 328.0 322.0 322.0 322.0 322.0 323.0 325.0 329.0 330.0 329.0 329.0 332.0 333.0 327.0 321.0 322.0 321.0 321.0 321.0 322.0 325.0 330.0 337.0 347.0 354.0 362.0 367.0 375.0 375.0 375.0 375.0 384.0 389.0 391.0 397.0 395.0 396.0 400.0 402.0 404.0 406.0 406.0 405.0 405.0 400.0 400.0 402.0 406.0 402.0 392.0 397.0 397.0 386.0 375.0 383.0 390.0 400.0 405.0 410.0 416.0 423.0 428.0 432.0 436.0 441.0 448.0 452.0 456.0 459.0 461.0 465.0 467.0 468.0 471.0 475.0 480.0 485.0 488.0 491.0 494.0 498.0 500.0 500.0 502.0 507.0 510.0 513.0 516.0 525.0 525.0 525.0 517.0 523.0 525.0 530.0 535.0 540.0 544.0 550.0 555.0 557.0 562.0 567.0 575.0 581.0 588.0 593.0 600.0 601.0 600.0 600.0 600.0 600.0 600.0 604.0 604.0 605.0 607.0 608.0
-9999.0 -9999.0 -9999.0 -9999.0 -9999.0 -9999.0 -9999.0 -9999.0 -9999.0 -9999.0 -9999.0 -9999.0 -9999.0 -9999.0 -9999.0 -9999.0 -9999.0 -9999.0 -9999.0 -9999.0 -9999.0 -9999.0 -9999.0 -9999.0 -9999.0 -9999.0 -9999.0 -9999.0 -9999.0 -9999.0 -9999.0 -9999.0 -9999.0 -9999.0 -9999.0 -9999.0 -9999.0 -9999.0 -9999.0 -9999.0 -9999.0 -9999.0 -9999.0 -9999.0 -9999.0 -9999.0 -9999.0 -9999.0 -9999.0 -9999.0 -9999.0 -9999.0 -9999.0 -9999.0 -9999.0 -9999.0 -9999.0 -9999.0 -9999.0 -9999.0 -9999.0 -9999.0 -9999.0 -9999.0 -9999.0 -9999.0 -9999.0 -9999.0 -9999.0 -9999.0 -9999.0 -9999.0 -9999.0 -9999.0 -9999.0 -9999.0 -9999.0 -9999.0 -9999.0 -9999.0 -9999.0 -9999.0 -9999.0 -9999.0 -9999.0 -9999.0 -9999.0 -9999.0 -9999.0 -9999.0 -9999.0 -9999.0 -9999.0 -9999.0 -9999.0 -9999.0 -9999.0 -9999.0 -9999.0 -9999.0 -9999.0 -9999.0 -9999.0 -9999.0 -9999.0 -9999.0 -9999.0 -9999.0 -9999.0 -9999.0 -9999.0 -9999.0 -9999.0 -9999.0 -9999.0 -9999.0 -9999.0 -9999.0 -9999.0 -9999.0 -9999.0 -9999.0 -9999.0 -9999.0 -9999.0 -9999.0 -9999.0 -9999.0 -9999.0 -9999.0 -9999.0 -9999.0 -9999.0 -9999.0 -9999.0 -9999.0 -9999.0 -9999.0 -9999.0 -9999.0 -9999.0 -9999.0 -9999.0 -9999.0 -9999.0 -9999.0 506.0 503.0 502.0 500.0 495.0 490.0 485.0 482.0 479.0 477.0 475.0 468.0 463.0 459.0 455.0 454.0 450.0 450.0 446.0 442.0 440.0 444.0 443.0 438.0 434.0 432.0 429.0 425.0 425.0 418.0 413.0 407.0 402.0 397.0 393.0 390.0 387.0 384.0 381.0 378.0 375.0 366.0 362.0 357.0 350.0 346.0 341.0 336.0 332.0 325.0 325.0 325.0 325.0 327.0 329.0 331.0 337.0 340.0 342.0 342.0 343.0 345.0 344.0 342.0 338.0 334.0 331.0 329.0 326.0 325.0 321.0 317.0 311.0 306.0 300.0 300.0 299.0 299.0 299.0 299.0 299.0 299.0 299.0 299.0 299.0 299.0 300.0 312.0 325.0 328.0 329.0 332.0 335.0 336.0 336.0 335.0 334.0 330.0 329.0 325.0 321.0 321.0 320.0 320.0 321.0 323.0 325.0 330.0 335.0 340.0 343.0 346.0 350.0 353.0 357.0 360.0 364.0 367.0 371.0 375.0 379.0 382.0 385.0 390.0 393.0 400.0 400.0 403.0 405.0 407.0 407.0 405.0 403.0 400.0 393.0 390.0 385.0 381.0 375.0 369.0 361.0 353.0 352.0 344.0 337.0 327.0 325.0 322.0 322.0 322.0 322.0 325.0 332.0 335.0 335.0 335.0 338.0 339.0 337.0 325.0 321.0 322.0 321.0 322.0 322.0 322.0 325.0 335.0 346.0 354.0 358.0 364.0 367.0 366.0 366.0 372.0 379.0 382.0 385.0 389.0 391.0 394.0 399.0 402.0 407.0 409.0 409.0 409.0 408.0 406.0 406.0 408.0 410.0 411.0 400.0 407.0 400.0 389.0 385.0 382.0 389.0 397.0 404.0 410.0 416.0 423.0 428.0 433.0 437.0 442.0 448.0 452.0 456.0 460.0 463.0 466.0 469.0 471.0 474.0 478.0 482.0 487.0 491.0 494.0 498.0 502.0 502.0 504.0 506.0 509.0 513.0 517.0 523.0 525.0 529.0 530.0 525.0 530.0 526.0 529.0 533.0 538.0 542.0 545.0 550.0 555.0 560.0 567.0 575.0 582.0 590.0 598.0 597.0 602.0 602.0 603.0 603.0 603.0 603.0 605.0 608.0 609.0 610.0 612.0
-9999.0 -9999.0 -9999.0 -9999.0 -9999.0 -9999.0 -9999.0 -9999.0 -9999.0 -9999.0 -9999.0 -9999.0 -9999.0 -9999.0 -9999.0 -9999.0 -9999.0 -9999.0 -9999.0 -9999.0 -9999.0 -9999.0 -9999.0 -9999.0 -9999.0 -9999.0 -9999.0 -9999.0 -9999.0 -9999.0 -9999.0 -9999.0 -9999.0 -9999.0 -9999.0 -9999.0 -9999.0 -9999.0 -9999.0 -9999.0 -9999.0 -9999.0 -9999.0 -9999.0 -9999.0 -9999.0 -9999.0 -9999.0 -9999.0 -9999.0 -9999.0 -9999.0 -9999.0 -9999.0 -9999.0 -9999.0 -9999.0 -9999.0 -9999.0 -9999.0 -9999.0 -9999.0 -9999.0 -9999.0 -9999.0 -9999.0 -9999.0 -9999.0 -9999.0 -9999.0 -9999.0 -9999.0 -9999.0 -9999.0 -9999.0 -9999.0 -9999.0 -9999.0 -9999.0 -9999.0 -9999.0 -9999.0 -9999.0 -9999.0 -9999.0 -9999.0 -9999.0 -9999.0 -9999.0 -9999.0 -9999.0 -9999.0 -9999.0 -9999.0 -9999.0 -9999.0 -9999.0 -9999.0 -9999.0 -9999.0 -9999.0 -9999.0 -9999.0 -9999.0 -9999.0 -9999.0 -9999.0 -9999.0 -9999.0 -9999.0 -9999.0 -9999.0 -9999.0 -9999.0 -9999.0 -9999.0 -9999.0 -9999.0 -9999.0 -9999.0 -9999.0 -9999.0 -9999.0 -9999.0 -9999.0 -9999.0 -9999.0 -9999.0 -9999.0 -9999.0 -9999.0 -9999.0 -9999.0 -9999.0 -9999.0 -9999.0 -9999.0 -9999.0 -9999.0 -9999.0 -9999.0 -9999.0 -9999.0 -9999.0 -9999.0 -9999.0 506.0 504.0 502.0 500.0 495.0 490.0 485.0 481.0 478.0 475.0 475.0 467.0 461.0 458.0 455.0 451.0 447.0 445.0 442.0 442.0 440.0 442.0 440.0 437.0 433.0 431.0 428.0 426.0 422.0 417.0 413.0 408.0 404.0 400.0 397.0 394.0 390.0 387.0 383.0 380.0 378.0 372.0 366.0 360.0 356.0 352.0 350.0 342.0 335.0 332.0 331.0 330.0 327.0 328.0 329.0 330.0 333.0 335.0 336.0 341.0 341.0 341.0 339.0 337.0 334.0 331.0 327.0 325.0 323.0 321.0 317.0 313.0 309.0 305.0 300.0 299.0 299.0 299.0 299.0 299.0 299.0 299.0 299.0 299.0 299.0 299.0 300.0 310.0 315.0 325.0 328.0 332.0 335.0 339.0 339.0 340.0 344.0 338.0 335.0 330.0 325.0 324.0 322.0 322.0 322.0 323.0 325.0 331.0 336.0 342.0 346.0 348.0 351.0 354.0 357.0 361.0 364.0 367.0 370.0 373.0 375.0 380.0 385.0 389.0 392.0 395.0 397.0 401.0 402.0 405.0 405.0 403.0 400.0 394.0 390.0 385.0 380.0 375.0 367.0 362.0 357.0 350.0 344.0 340.0 334.0 330.0 325.0 325.0 325.0 327.0 327.0 333.0 337.0 339.0 341.0 341.0 341.0 347.0 350.0 337.0 329.0 325.0 322.0 322.0 322.0 322.0 322.0 325.0 337.0 350.0 356.0 357.0 360.0 359.0 360.0 362.0 371.0 374.0 379.0 383.0 388.0 393.0 400.0 402.0 407.0 410.0 413.0 414.0 413.0 412.0 412.0 415.0 417.0 418.0 421.0 413.0 410.0 400.0 393.0 389.0 390.0 397.0 400.0 410.0 422.0 425.0 429.0 434.0 437.0 443.0 448.0 452.0 456.0 460.0 465.0 468.0 471.0 475.0 475.0 481.0 485.0 490.0 493.0 498.0 502.0 504.0 506.0 507.0 510.0 512.0 516.0 519.0 522.0 525.0 530.0 534.0 534.0 537.0 535.0 534.0 537.0 539.0 542.0 547.0 550.0 559.0 565.0 567.0 573.0 580.0 586.0 592.0 600.0 602.0 604.0 606.0 606.0 606.0 606.0 607.0 610.0 611.0 612.0 612.0
-9999.0 -9999.0 -9999.0 -9999.0 -9999.0 -9999.0 -9999.0 -9999.0 -9999.0 -9999.0 -9999.0 -9999.0 -9999.0 -9999.0 -9999.0 -9999.0 -9999.0 -9999.0 -9999.0 -9999.0 -9999.0 -9999.0 -9999.0 -9999.0 -9999.0 -9999.0 -9999.0 -9999.0 -9999.0 -9999.0 -9999.0 -9999.0 -9999.0 -9999.0 -9999.0 -9999.0 -9999.0 -9999.0 -9999.0 -9999.0 -9999.0 -9999.0 -9999.0 -9999.0 -9999.0 -9999.0 -9999.0 -9999.0 -9999.0 -9999.0 -9999.0 -9999.0 -9999.0 -9999.0 -9999.0 -9999.0 -9999.0 -9999.0 -9999.0 -9999.0 -9999.0 -9999.0 -9999.0 -9999.0 -9999.0 -9999.0 -9999.0 -9999.0 -9999.0 -9999.0 -9999.0 -9999.0 -9999.0 -9999.0 -9999.0 -9999.0 -9999.0 -9999.0 -9999.0 -9999.0 -9999.0 -9999.0 -9999.0 -9999.0 -9999.0 -9999.0 -9999.0 -9999.0 -9999.0 -9999.0 -9999.0 -9999.0 -9999.0 -9999.0 -9999.0 -9999.0 -9999.0 -9999.0 -9999.0 -9999.0 -9999.0 -9999.0 -9999.0 -9999.0 -9999.0 -9999.0 -9999.0 -9999.0 -9999.0 -9999.0 -9999.0 -9999.0 -9999.0 -9999.0 -9999.0 -9999.0 -9999.0 -9999.0 -9999.0 -9999.0 -9999.0 -9999.0 -9999.0 -9999.0 -9999.0 -9999.0 -9999.0 -9999.0 -9999.0 -9999.0 -9999.0 -9999.0 -9999.0 -9999.0 -9999.0 -9999.0 -9999.0 -9999.0 -9999.0 -9999.0 -9999.0 -9999.0 -9999.0 -9999.0 -9999.0 -9999.0 505.0 503.0 501.0 497.0 493.0 488.0 484.0 480.0 476.0 471.0 468.0 465.0 458.0 456.0 451.0 449.0 445.0 441.0 439.0 439.0 438.0 436.0 435.0 434.0 431.0 428.0 426.0 425.0 419.0 416.0 412.0 409.0 405.0 403.0 400.0 395.0 391.0 387.0 383.0 382.0 378.0 375.0 368.0 365.0 360.0 356.0 350.0 343.0 338.0 335.0 334.0 331.0 330.0 330.0 332.0 332.0 332.0 333.0 336.0 337.0 338.0 337.0 335.0 332.0 330.0 327.0 325.0 320.0 318.0 316.0 313.0 309.0 306.0 301.0 300.0 299.0 299.0 299.0 299.0 299.0 299.0 299.0 299.0 299.0 299.0 299.0 299.0 303.0 313.0 325.0 329.0 331.0 335.0 338.0 343.0 346.0 350.0 347.0 341.0 338.0 335.0 329.0 325.0 325.0 325.0 323.0 325.0 331.0 337.0 343.0 350.0 351.0 353.0 355.0 357.0 360.0 363.0 366.0 369.0 372.0 375.0 379.0 383.0 387.0 390.0 392.0 396.0 400.0 402.0 403.0 404.0 402.0 400.0 393.0 388.0 383.0 380.0 375.0 366.0 358.0 350.0 349.0 343.0 339.0 336.0 330.0 329.0 330.0 331.0 332.0 335.0 338.0 344.0 347.0 348.0 348.0 345.0 350.0 350.0 350.0 337.0 335.0 325.0 325.0 322.0 322.0 322.0 322.0 329.0 350.0 350.0 351.0 356.0 352.0 350.0 360.0 363.0 369.0 376.0 383.0 390.0 395.0 401.0 404.0 408.0 412.0 416.0 417.0 417.0 418.0 418.0 418.0 425.0 425.0 427.0 425.0 414.0 410.0 400.0 392.0 392.0 398.0 405.0 412.0 422.0 427.0 430.0 434.0 438.0 443.0 448.0 452.0 456.0 460.0 465.0 469.0 473.0 477.0 480.0 483.0 489.0 493.0 498.0 502.0 503.0 506.0 509.0 511.0 513.0 516.0 519.0 523.0 525.0 528.0 532.0 537.0 539.0 547.0 541.0 542.0 542.0 543.0 545.0 548.0 557.0 562.0 572.0 575.0 575.0 575.0 584.0 590.0 598.0 602.0 605.0 607.0 609.0 609.0 610.0 612.0 613.0 614.0 613.0 614.0
-9999.0 -9999.0 -9999.0 -9999.0 -9999.0 -9999.0 -9999.0 -9999.0 -9999.0 -9999.0 -9999.0 -9999.0 -9999.0 -9999.0 -9999.0 -9999.0 -9999.0 -9999.0 -9999.0 -9999.0 -9999.0 -9999.0 -9999.0 -9999.0 -9999.0 -9999.0 -9999.0 -9999.0 -9999.0 -9999.0 -9999.0 -9999.0 -9999.0 -9999.0 -9999.0 -9999.0 -9999.0 -9999.0 -9999.0 -9999.0 -9999.0 -9999.0 -9999.0 -9999.0 -9999.0 -9999.0 -9999.0 -9999.0 -9999.0 -9999.0 -9999.0 -9999.0 -9999.0 -9999.0 -9999.0 -9999.0 -9999.0 -9999.0 -9999.0 -9999.0 -9999.0 -9999.0 -9999.0 -9999.0 -9999.0 -9999.0 -9999.0 -9999.0 -9999.0 -9999.0 -9999.0 -9999.0 -9999.0 -9999.0 -9999.0 -9999.0 -9999.0 -9999.0 -9999.0 -9999.0 -9999.0 -9999.0 -9999.0 -9999.0 -9999.0 -9999.0 -9999.0 -9999.0 -9999.0 -9999.0 -9999.0 -9999.0 -9999.0 -9999.0 -9999.0 -9999.0 -9999.0 -9999.0 -9999.0 -9999.0 -9999.0 -9999.0 -9999.0 -9999.0 -9999.0 -9999.0 -9999.0 -9999.0 -9999.0 -9999.0 -9999.0 -9999.0 -9999.0 -9999.0 -9999.0 -9999.0 -9999.0 -9999.0 -9999.0 -9999.0 -9999.0 -9999.0 -9999.0 -9999.0 -9999.0 -9999.0 -9999.0 -9999.0 -9999.0 -9999.0 -9999.0 -9999.0 -9999.0 -9999.0 -9999.0 -9999.0 -9999.0 -9999.0 -9999.0 -9999.0 -9999.0 -9999.0 -9999.0 -9999.0 -9999.0 -9999.0 504.0 502.0 500.0 496.0 491.0 487.0 483.0 479.0 475.0 468.0 463.0 459.0 456.0 450.0 447.0 444.0 442.0 438.0 437.0 435.0 432.0 431.0 430.0 429.0 427.0 425.0 425.0 420.0 417.0 413.0 409.0 406.0 404.0 401.0 400.0 395.0 390.0 385.0 381.0 379.0 378.0 375.0 375.0 368.0 362.0 356.0 352.0 345.0 341.0 338.0 336.0 334.0 332.0 332.0 331.0 332.0 332.0 332.0 333.0 334.0 335.0 333.0 331.0 329.0 325.0 323.0 320.0 317.0 314.0 312.0 308.0 305.0 301.0 300.0 299.0 299.0 299.0 299.0 299.0 299.0 299.0 299.0 299.0 299.0 299.0 299.0 299.0 300.0 310.0 316.0 325.0 330.0 333.0 338.0 343.0 350.0 351.0 350.0 350.0 350.0 340.0 336.0 332.0 331.0 331.0 326.0 330.0 333.0 338.0 343.0 350.0 352.0 354.0 356.0 359.0 361.0 364.0 366.0 369.0 372.0 375.0 378.0 383.0 386.0 389.0 392.0 396.0 400.0 401.0 403.0 402.0 400.0 400.0 392.0 385.0 381.0 375.0 368.0 364.0 357.0 350.0 345.0 342.0 339.0 335.0 333.0 333.0 334.0 336.0 339.0 341.0 344.0 350.0 352.0 352.0 350.0 348.0 350.0 351.0 352.0 350.0 339.0 335.0 325.0 322.0 322.0 322.0 322.0 325.0 337.0 337.0 342.0 350.0 350.0 346.0 350.0 355.0 367.0 376.0 384.0 391.0 400.0 401.0 405.0 409.0 414.0 418.0 423.0 425.0 425.0 425.0 425.0 427.0 429.0 429.0 427.0 425.0 412.0 400.0 395.0 395.0 400.0 408.0 416.0 425.0 429.0 433.0 437.0 441.0 445.0 450.0 454.0 456.0 459.0 464.0 469.0 473.0 478.0 483.0 487.0 492.0 498.0 502.0 503.0 506.0 508.0 511.0 515.0 517.0 519.0 523.0 527.0 529.0 530.0 534.0 538.0 542.0 548.0 550.0 550.0 550.0 550.0 546.0 549.0 558.0 571.0 578.0 581.0 582.0 585.0 587.0 597.0 600.0 602.0 606.0 609.0 611.0 612.0 613.0 614.0 614.0 613.0 614.0 613.0
-9999.0 -9999.0 -9999.0 -9999.0 -9999.0 -9999.0 -9999.0 -9999.0 -9999.0 -9999.0 -9999.0 -9999.0 -9999.0 -9999.0 -9999.0 -9999.0 -9999.0 -9999.0 -9999.0 -9999.0 -9999.0 -9999.0 -9999.0 -9999.0 -9999.0 -9999.0 -9999.0 -9999.0 -9999.0 -9999.0 -9999.0 -9999.0 -9999.0 -9999.0 -9999.0 -9999.0 -9999.0 -9999.0 -9999.0 -9999.0 -9999.0 -9999.0 -9999.0 -9999.0 -9999.0 -9999.0 -9999.0 -9999.0 -9999.0 -9999.0 -9999.0 -9999.0 -9999.0 -9999.0 -9999.0 -9999.0 -9999.0 -9999.0 -9999.0 -9999.0 -9999.0 -9999.0 -9999.0 -9999.0 -9999.0 -9999.0 -9999.0 -9999.0 -9999.0 -9999.0 -9999.0 -9999.0 -9999.0 -9999.0 -9999.0 -9999.0 -9999.0 -9999.0 -9999.0 -9999.0 -9999.0 -9999.0 -9999.0 -9999.0 -9999.0 -9999.0 -9999.0 -9999.0 -9999.0 -9999.0 -9999.0 -9999.0 -9999.0 -9999.0 -9999.0 -9999.0 -9999.0 -9999.0 -9999.0 -9999.0 -9999.0 -9999.0 -9999.0 -9999.0 -9999.0 -9999.0 -9999.0 -9999.0 -9999.0 -9999.0 -9999.0 -9999.0 -9999.0 -9999.0 -9999.0 -9999.0 -9999.0 -9999.0 -9999.0 -9999.0 -9999.0 -9999.0 -9999.0 -9999.0 -9999.0 -9999.0 -9999.0 -9999.0 -9999.0 -9999.0 -9999.0 -9999.0 -9999.0 -9999.0 -9999.0 -9999.0 -9999.0 -9999.0 -9999.0 -9999.0 -9999.0 -9999.0 -9999.0 -9999.0 -9999.0 -9999.0 503.0 502.0 500.0 493.0 489.0 485.0 481.0 477.0 471.0 465.0 459.0 456.0 450.0 447.0 443.0 440.0 437.0 435.0 432.0 429.0 425.0 425.0 425.0 425.0 425.0 418.0 417.0 415.0 412.0 409.0 406.0 404.0 400.0 400.0 395.0 392.0 388.0 383.0 379.0 376.0 375.0 375.0 372.0 368.0 363.0 358.0 354.0 350.0 344.0 341.0 337.0 336.0 334.0 332.0 331.0 330.0 329.0 329.0 330.0 330.0 332.0 330.0 329.0 325.0 321.0 320.0 316.0 313.0 311.0 308.0 305.0 300.0 300.0 299.0 299.0 299.0 299.0 299.0 299.0 299.0 299.0 299.0 299.0 299.0 299.0 299.0 299.0 300.0 308.0 316.0 325.0 325.0 331.0 336.0 341.0 344.0 350.0 350.0 350.0 350.0 350.0 342.0 339.0 337.0 335.0 332.0 333.0 335.0 339.0 344.0 350.0 352.0 354.0 357.0 359.0 362.0 365.0 367.0 369.0 372.0 375.0 378.0 382.0 385.0 389.0 392.0 396.0 400.0 400.0 401.0 401.0 400.0 393.0 389.0 382.0 375.0 370.0 366.0 361.0 356.0 350.0 346.0 342.0 339.0 336.0 336.0 336.0 337.0 340.0 343.0 350.0 351.0 355.0 356.0 356.0 352.0 350.0 350.0 353.0 353.0 350.0 350.0 339.0 335.0 325.0 322.0 322.0 322.0 322.0 325.0 328.0 336.0 341.0 343.0 344.0 347.0 350.0 365.0 376.0 382.0 389.0 395.0 401.0 405.0 408.0 413.0 418.0 425.0 427.0 428.0 429.0 429.0 431.0 433.0 432.0 430.0 430.0 425.0 400.0 399.0 397.0 400.0 408.0 416.0 425.0 429.0 433.0 437.0 441.0 444.0 447.0 451.0 455.0 460.0 465.0 470.0 475.0 481.0 484.0 490.0 494.0 500.0 503.0 506.0 509.0 511.0 514.0 517.0 520.0 525.0 525.0 529.0 533.0 534.0 537.0 541.0 545.0 550.0 553.0 554.0 554.0 552.0 550.0 555.0 560.0 571.0 575.0 581.0 587.0 591.0 597.0 600.0 602.0 605.0 607.0 610.0 613.0 614.0 615.0 617.0 618.0 616.0 615.0 614.0
-9999.0 -9999.0 -9999.0 -9999.0 -9999.0 -9999.0 -9999.0 -9999.0 -9999.0 -9999.0 -9999.0 -9999.0 -9999.0 -9999.0 -9999.0 -9999.0 -9999.0 -9999.0 -9999.0 -9999.0 -9999.0 -9999.0 -9999.0 -9999.0 -9999.0 -9999.0 -9999.0 -9999.0 -9999.0 -9999.0 -9999.0 -9999.0 -9999.0 -9999.0 -9999.0 -9999.0 -9999.0 -9999.0 -9999.0 -9999.0 -9999.0 -9999.0 -9999.0 -9999.0 -9999.0 -9999.0 -9999.0 -9999.0 -9999.0 -9999.0 -9999.0 -9999.0 -9999.0 -9999.0 -9999.0 -9999.0 -9999.0 -9999.0 -9999.0 -9999.0 -9999.0 -9999.0 -9999.0 -9999.0 -9999.0 -9999.0 -9999.0 -9999.0 -9999.0 -9999.0 -9999.0 -9999.0 -9999.0 -9999.0 -9999.0 -9999.0 -9999.0 -9999.0 -9999.0 -9999.0 -9999.0 -9999.0 -9999.0 -9999.0 -9999.0 -9999.0 -9999.0 -9999.0 -9999.0 -9999.0 -9999.0 -9999.0 -9999.0 -9999.0 -9999.0 -9999.0 -9999.0 -9999.0 -9999.0 -9999.0 -9999.0 -9999.0 -9999.0 -9999.0 -9999.0 -9999.0 -9999.0 -9999.0 -9999.0 -9999.0 -9999.0 -9999.0 -9999.0 -9999.0 -9999.0 -9999.0 -9999.0 -9999.0 -9999.0 -9999.0 -9999.0 -9999.0 -9999.0 -9999.0 -9999.0 -9999.0 -9999.0 -9999.0 -9999.0 -9999.0 -9999.0 -9999.0 -9999.0 -9999.0 -9999.0 -9999.0 -9999.0 -9999.0 -9999.0 -9999.0 -9999.0 -9999.0 -9999.0 -9999.0 -9999.0 -9999.0 502.0 501.0 500.0 493.0 487.0 481.0 477.0 475.0 468.0 463.0 456.0 450.0 447.0 443.0 440.0 437.0 433.0 430.0 429.0 425.0 421.0 418.0 417.0 416.0 416.0 414.0 411.0 409.0 406.0 405.0 402.0 400.0 396.0 395.0 393.0 389.0 385.0 381.0 377.0 375.0 371.0 372.0 368.0 365.0 362.0 358.0 354.0 350.0 344.0 340.0 339.0 337.0 334.0 332.0 330.0 328.0 326.0 326.0 326.0 327.0 328.0 328.0 325.0 319.0 317.0 315.0 313.0 310.0 307.0 305.0 301.0 300.0 299.0 299.0 299.0 299.0 299.0 299.0 299.0 299.0 299.0 299.0 299.0 299.0 299.0 299.0 299.0 300.0 307.0 312.0 317.0 325.0 330.0 333.0 338.0 342.0 348.0 350.0 350.0 351.0 350.0 350.0 343.0 343.0 340.0 337.0 338.0 339.0 341.0 344.0 348.0 351.0 353.0 356.0 359.0 361.0 364.0 368.0 371.0 373.0 375.0 378.0 382.0 386.0 389.0 392.0 396.0 400.0 399.0 400.0 399.0 400.0 393.0 387.0 381.0 375.0 370.0 364.0 360.0 355.0 350.0 346.0 344.0 342.0 339.0 339.0 339.0 341.0 343.0 345.0 350.0 357.0 359.0 361.0 360.0 356.0 355.0 353.0 355.0 356.0 354.0 351.0 350.0 337.0 325.0 322.0 322.0 322.0 322.0 322.0 325.0 332.0 339.0 343.0 346.0 348.0 351.0 353.0 375.0 379.0 385.0 392.0 400.0 401.0 406.0 410.0 417.0 425.0 428.0 430.0 433.0 433.0 435.0 437.0 436.0 435.0 431.0 425.0 417.0 400.0 397.0 400.0 410.0 416.0 425.0 429.0 433.0 437.0 441.0 445.0 450.0 453.0 456.0 460.0 464.0 468.0 471.0 475.0 485.0 491.0 500.0 503.0 504.0 508.0 511.0 514.0 516.0 519.0 521.0 525.0 529.0 531.0 534.0 538.0 540.0 541.0 544.0 547.0 551.0 556.0 559.0 558.0 558.0 559.0 564.0 567.0 575.0 583.0 591.0 600.0 603.0 605.0 608.0 610.0 612.0 614.0 616.0 618.0 618.0 620.0 621.0 620.0 619.0 617.0
-9999.0 -9999.0 -9999.0 -9999.0 -9999.0 -9999.0 -9999.0 -9999.0 -9999.0 -9999.0 -9999.0 -9999.0 -9999.0 -9999.0 -9999.0 -9999.0 -9999.0 -9999.0 -9999.0 -9999.0 -9999.0 -9999.0 -9999.0 -9999.0 -9999.0 -9999.0 -9999.0 -9999.0 -9999.0 -9999.0 -9999.0 -9999.0 -9999.0 -9999.0 -9999.0 -9999.0 -9999.0 -9999.0 -9999.0 -9999.0 -9999.0 -9999.0 -9999.0 -9999.0 -9999.0 -9999.0 -9999.0 -9999.0 -9999.0 -9999.0 -9999.0 -9999.0 -9999.0 -9999.0 -9999.0 -9999.0 -9999.0 -9999.0 -9999.0 -9999.0 -9999.0 -9999.0 -9999.0 -9999.0 -9999.0 -9999.0 -9999.0 -9999.0 -9999.0 -9999.0 -9999.0 -9999.0 -9999.0 -9999.0 -9999.0 -9999.0 -9999.0 -9999.0 -9999.0 -9999.0 -9999.0 -9999.0 -9999.0 -9999.0 -9999.0 -9999.0 -9999.0 -9999.0 -9999.0 -9999.0 -9999.0 -9999.0 -9999.0 -9999.0 -9999.0 -9999.0 -9999.0 -9999.0 -9999.0 -9999.0 -9999.0 -9999.0 -9999.0 -9999.0 -9999.0 -9999.0 -9999.0 -9999.0 -9999.0 -9999.0 -9999.0 -9999.0 -9999.0 -9999.0 -9999.0 -9999.0 -9999.0 -9999.0 -9999.0 -9999.0 -9999.0 -9999.0 -9999.0 -9999.0 -9999.0 -9999.0 -9999.0 -9999.0 -9999.0 -9999.0 -9999.0 -9999.0 -9999.0 -9999.0 -9999.0 -9999.0 -9999.0 -9999.0 -9999.0 -9999.0 -9999.0 -9999.0 -9999.0 -9999.0 -9999.0 -9999.0 501.0 500.0 496.0 491.0 485.0 481.0 475.0 472.0 467.0 461.0 456.0 450.0 445.0 442.0 437.0 433.0 430.0 427.0 425.0 419.0 418.0 414.0 411.0 408.0 408.0 407.0 406.0 403.0 400.0 400.0 397.0 396.0 395.0 392.0 391.0 387.0 383.0 379.0 375.0 371.0 369.0 367.0 365.0 362.0 358.0 355.0 352.0 346.0 345.0 342.0 339.0 340.0 335.0 331.0 328.0 328.0 325.0 321.0 321.0 325.0 325.0 325.0 318.0 316.0 312.0 310.0 308.0 306.0 304.0 301.0 300.0 299.0 299.0 299.0 299.0 299.0 299.0 299.0 299.0 299.0 299.0 299.0 299.0 299.0 299.0 299.0 299.0 299.0 300.0 307.0 312.0 317.0 325.0 330.0 335.0 340.0 344.0 350.0 350.0 351.0 351.0 351.0 350.0 350.0 343.0 341.0 343.0 344.0 343.0 344.0 346.0 350.0 352.0 354.0 357.0 361.0 364.0 367.0 371.0 375.0 378.0 380.0 383.0 386.0 390.0 393.0 396.0 400.0 399.0 399.0 400.0 395.0 391.0 386.0 381.0 375.0 370.0 364.0 360.0 355.0 350.0 347.0 345.0 343.0 343.0 342.0 342.0 344.0 345.0 350.0 357.0 362.0 365.0 365.0 363.0 360.0 359.0 358.0 359.0 359.0 356.0 354.0 350.0 339.0 333.0 325.0 322.0 322.0 322.0 322.0 325.0 333.0 340.0 350.0 350.0 350.0 350.0 359.0 364.0 375.0 382.0 387.0 392.0 395.0 400.0 407.0 414.0 418.0 425.0 429.0 433.0 437.0 439.0 441.0 440.0 438.0 435.0 432.0 425.0 412.0 400.0 405.0 413.0 425.0 428.0 430.0 433.0 437.0 441.0 445.0 450.0 453.0 457.0 460.0 463.0 466.0 470.0 475.0 487.0 500.0 500.0 503.0 506.0 509.0 513.0 516.0 519.0 521.0 525.0 525.0 530.0 534.0 537.0 540.0 543.0 545.0 545.0 549.0 550.0 557.0 562.0 565.0 566.0 567.0 567.0 575.0 577.0 583.0 591.0 600.0 605.0 610.0 612.0 614.0 616.0 616.0 619.0 621.0 621.0 619.0 625.0 625.0 625.0 619.0
-9999.0 -9999.0 -9999.0 -9999.0 -9999.0 -9999.0 -9999.0 -9999.0 -9999.0 -9999.0 -9999.0 -9999.0 -9999.0 -9999.0 -9999.0 -9999.0 -9999.0 -9999.0 -9999.0 -9999.0 -9999.0 -9999.0 -9999.0 -9999.0 -9999.0 -9999.0 -9999.0 -9999.0 -9999.0 -9999.0 -9999.0 -9999.0 -9999.0 -9999.0 -9999.0 -9999.0 -9999.0 -9999.0 -9999.0 -9999.0 -9999.0 -9999.0 -9999.0 -9999.0 -9999.0 -9999.0 -9999.0 -9999.0 -9999.0 -9999.0 -9999.0 -9999.0 -9999.0 -9999.0 -9999.0 -9999.0 -9999.0 -9999.0 -9999.0 -9999.0 -9999.0 -9999.0 -9999.0 -9999.0 -9999.0 -9999.0 -9999.0 -9999.0 -9999.0 -9999.0 -9999.0 -9999.0 -9999.0 -9999.0 -9999.0 -9999.0 -9999.0 -9999.0 -9999.0 -9999.0 -9999.0 -9999.0 -9999.0 -9999.0 -9999.0 -9999.0 -9999.0 -9999.0 -9999.0 -9999.0 -9999.0 -9999.0 -9999.0 -9999.0 -9999.0 -9999.0 -9999.0 -9999.0 -9999.0 -9999.0 -9999.0 -9999.0 -9999.0 -9999.0 -9999.0 -9999.0 -9999.0 -9999.0 -9999.0 -9999.0 -9999.0 -9999.0 -9999.0 -9999.0 -9999.0 -9999.0 -9999.0 -9999.0 -9999.0 -9999.0 -9999.0 -9999.0 -9999.0 -9999.0 -9999.0 -9999.0 -9999.0 -9999.0 -9999.0 -9999.0 -9999.0 -9999.0 -9999.0 -9999.0 -9999.0 -9999.0 -9999.0 -9999.0 -9999.0 -9999.0 -9999.0 -9999.0 -9999.0 -9999.0 -9999.0 -9999.0 501.0 500.0 496.0 490.0 484.0 477.0 472.0 468.0 465.0 460.0 455.0 450.0 445.0 440.0 436.0 431.0 427.0 422.0 420.0 417.0 413.0 411.0 406.0 402.0 400.0 400.0 400.0 400.0 397.0 396.0 395.0 393.0 392.0 390.0 388.0 385.0 383.0 379.0 376.0 372.0 368.0 365.0 362.0 359.0 355.0 352.0 350.0 344.0 342.0 338.0 337.0 335.0 331.0 329.0 325.0 325.0 321.0 319.0 318.0 318.0 318.0 318.0 315.0 311.0 308.0 305.0 304.0 302.0 300.0 300.0 299.0 299.0 299.0 299.0 299.0 299.0 299.0 299.0 299.0 299.0 299.0 299.0 299.0 299.0 299.0 299.0 299.0 299.0 299.0 300.0 308.0 315.0 325.0 330.0 334.0 337.0 341.0 346.0 350.0 350.0 349.0 351.0 350.0 350.0 347.0 346.0 346.0 350.0 346.0 345.0 347.0 350.0 351.0 353.0 357.0 360.0 364.0 367.0 371.0 375.0 378.0 381.0 384.0 387.0 390.0 394.0 398.0 398.0 399.0 399.0 400.0 394.0 390.0 385.0 380.0 375.0 370.0 365.0 360.0 356.0 354.0 350.0 347.0 347.0 346.0 345.0 345.0 346.0 350.0 352.0 360.0 366.0 372.0 369.0 367.0 364.0 363.0 363.0 363.0 362.0 358.0 354.0 350.0 341.0 333.0 327.0 322.0 322.0 322.0 322.0 324.0 330.0 338.0 350.0 355.0 357.0 358.0 359.0 367.0 368.0 377.0 383.0 390.0 397.0 404.0 409.0 416.0 423.0 427.0 431.0 435.0 439.0 443.0 445.0 444.0 443.0 442.0 436.0 430.0 425.0 412.0 411.0 416.0 425.0 428.0 432.0 435.0 438.0 442.0 446.0 450.0 453.0 455.0 458.0 462.0 466.0 470.0 475.0 482.0 490.0 500.0 502.0 506.0 510.0 513.0 517.0 520.0 525.0 527.0 530.0 533.0 537.0 540.0 543.0 546.0 550.0 548.0 550.0 557.0 562.0 567.0 568.0 575.0 575.0 575.0 582.0 584.0 586.0 592.0 600.0 604.0 607.0 612.0 617.0 620.0 620.0 621.0 625.0 625.0 625.0 625.0 627.0 626.0 -9999.0
-9999.0 -9999.0 -9999.0 -9999.0 -9999.0 -9999.0 -9999.0 -9999.0 -9999.0 -9999.0 -9999.0 -9999.0 -9999.0 -9999.0 -9999.0 -9999.0 -9999.0 -9999.0 -9999.0 -9999.0 -9999.0 -9999.0 -9999.0 -9999.0 -9999.0 -9999.0 -9999.0 -9999.0 -9999.0 -9999.0 -9999.0 -9999.0 -9999.0 -9999.0 -9999.0 -9999.0 -9999.0 -9999.0 -9999.0 -9999.0 -9999.0 -9999.0 -9999.0 -9999.0 -9999.0 -9999.0 -9999.0 -9999.0 -9999.0 -9999.0 -9999.0 -9999.0 -9999.0 -9999.0 -9999.0 -9999.0 -9999.0 -9999.0 -9999.0 -9999.0 -9999.0 -9999.0 -9999.0 -9999.0 -9999.0 -9999.0 -9999.0 -9999.0 -9999.0 -9999.0 -9999.0 -9999.0 -9999.0 -9999.0 -9999.0 -9999.0 -9999.0 -9999.0 -9999.0 -9999.0 -9999.0 -9999.0 -9999.0 -9999.0 -9999.0 -9999.0 -9999.0 -9999.0 -9999.0 -9999.0 -9999.0 -9999.0 -9999.0 -9999.0 -9999.0 -9999.0 -9999.0 -9999.0 -9999.0 -9999.0 -9999.0 -9999.0 -9999.0 -9999.0 -9999.0 -9999.0 -9999.0 -9999.0 -9999.0 -9999.0 -9999.0 -9999.0 -9999.0 -9999.0 -9999.0 -9999.0 -9999.0 -9999.0 -9999.0 -9999.0 -9999.0 -9999.0 -9999.0 -9999.0 -9999.0 -9999.0 -9999.0 -9999.0 -9999.0 -9999.0 -9999.0 -9999.0 -9999.0 -9999.0 -9999.0 -9999.0 -9999.0 -9999.0 -9999.0 -9999.0 -9999.0 -9999.0 -9999.0 -9999.0 -9999.0 501.0 500.0 500.0 496.0 490.0 484.0 477.0 472.0 468.0 465.0 460.0 455.0 450.0 443.0 437.0 435.0 430.0 425.0 421.0 416.0 414.0 409.0 406.0 405.0 400.0 396.0 396.0 396.0 396.0 393.0 393.0 391.0 390.0 388.0 388.0 385.0 383.0 380.0 378.0 375.0 372.0 368.0 364.0 360.0 357.0 354.0 350.0 347.0 343.0 340.0 335.0 332.0 332.0 325.0 325.0 323.0 321.0 319.0 316.0 314.0 313.0 313.0 312.0 309.0 306.0 305.0 300.0 300.0 299.0 299.0 299.0 299.0 299.0 299.0 299.0 299.0 299.0 299.0 299.0 299.0 299.0 299.0 299.0 299.0 299.0 299.0 299.0 299.0 299.0 299.0 299.0 305.0 312.0 322.0 327.0 330.0 333.0 337.0 343.0 344.0 345.0 350.0 349.0 351.0 351.0 350.0 350.0 350.0 350.0 351.0 347.0 348.0 349.0 351.0 354.0 357.0 361.0 364.0 367.0 371.0 375.0 376.0 380.0 383.0 387.0 390.0 394.0 398.0 400.0 400.0 400.0 400.0 395.0 390.0 384.0 380.0 375.0 370.0 366.0 362.0 358.0 354.0 350.0 350.0 350.0 350.0 350.0 347.0 346.0 350.0 359.0 364.0 375.0 375.0 375.0 370.0 369.0 369.0 369.0 368.0 364.0 360.0 355.0 350.0 342.0 336.0 331.0 325.0 324.0 322.0 322.0 322.0 325.0 336.0 346.0 354.0 361.0 366.0 367.0 368.0 370.0 375.0 383.0 390.0 400.0 404.0 410.0 417.0 425.0 429.0 433.0 437.0 441.0 445.0 450.0 450.0 450.0 450.0 441.0 438.0 432.0 425.0 417.0 418.0 425.0 428.0 432.0 434.0 437.0 441.0 444.0 445.0 450.0 454.0 457.0 461.0 465.0 470.0 475.0 482.0 488.0 492.0 500.0 505.0 508.0 513.0 518.0 523.0 525.0 530.0 535.0 537.0 541.0 544.0 545.0 550.0 555.0 554.0 557.0 562.0 567.0 575.0 575.0 579.0 581.0 582.0 587.0 591.0 594.0 594.0 596.0 600.0 602.0 612.0 625.0 625.0 625.0 625.0 626.0 629.0 629.0 629.0 630.0 -9999.0 -9999.0
