ncols 295
nrows 68
xllcorner 627200
yllcorner 5115000
cellsize 200 
NODATA_value -9999 
1903 1843 1800 1741 1737 1766 1782 1756 1677 1631 1516 1394 1402 1335 1277 1239 1216 1186 1117 1118 1150 1178 1189 1226 1276 1325 1372 1456 1439 1417 1441 1452 1440 1303 1227 1226 1316 1441 1492 1507 1383 1306 1257 1269 1349 1411 1471 1492 1515 1545 1569 1592 1595 1552 1627 1645 1636 1600 1539 1507 1572 1641 1634 1589 1600 1646 1660 1635 1676 1694 1650 1617 1641 1695 1779 1731 1635 1613 1690 1591 1514 1461 1404 1326 1262 1229 1312 1291 1180 1312 1505 1555 1617 1626 1576 1629 1732 1910 2084 2287 2329 2258 2237 2211 2157 2104 2082 2088 2099 2122 2128 1990 1824 1762 1625 1442 1355 1287 1183 1126 1109 1154 1042 888 805 910 1229 1331 1369 1500 1631 1663 1647 1613 1544 1425 1279 1208 1138 1103 1058 838 708 652 621 609 596 571 547 546 558 591 612 588 520 466 441 420 369 461 465 463 457 430 468 471 500 535 591 661 692 645 500 661 704 747 786 810 865 882 891 965 1054 1179 1288 1369 1447 1496 1527 1605 1607 1594 1678 1618 1621 1655 1504 1436 1263 1220 1156 1036 990 940 1016 945 764 680 594 562 579 608 519 390 268 224 217 212 208 208 207 209 210 213 212 213 210 217 237 312 397 521 897 894 966 1075 1172 1254 1278 1421 1470 1493 1570 1576 1506 1446 1465 1422 1438 1417 1454 1459 1516 1628 1710 1712 1766 1783 1766 1729 1714 1662 1596 1515 1406 1298 1307 1390 1416 1410 1411 1422 1384 1414 1352 1354 1328 1361 1353 1292 1309 1311 1318 1306 1280 1246 1208 1184 1163 1099 1053 1015 942 909 988
2061 1981 1942 1818 1713 1661 1679 1663 1618 1537 1458 1408 1322 1271 1214 1196 1175 1133 1174 1224 1255 1270 1266 1277 1360 1456 1489 1518 1505 1513 1530 1537 1459 1329 1219 1219 1316 1464 1577 1590 1506 1392 1295 1282 1295 1398 1473 1519 1552 1597 1623 1667 1679 1663 1698 1717 1693 1662 1598 1581 1623 1731 1716 1680 1649 1724 1734 1728 1767 1737 1666 1725 1745 1771 1849 1813 1670 1756 1747 1622 1542 1479 1414 1328 1269 1226 1336 1285 1275 1375 1521 1614 1666 1686 1613 1630 1766 1933 2101 2309 2428 2383 2284 2180 2174 2139 2110 2099 2125 2170 2242 2154 1894 1666 1541 1449 1402 1328 1229 1243 1236 1223 1065 919 813 877 1276 1442 1480 1525 1616 1642 1640 1621 1537 1402 1298 1227 1153 1160 1131 859 726 666 624 606 600 578 550 547 560 575 590 584 514 457 431 361 407 461 462 460 396 471 477 481 512 529 589 637 669 541 585 729 776 803 845 875 929 999 1020 1006 996 1119 1247 1361 1435 1538 1631 1655 1684 1673 1660 1545 1498 1555 1404 1336 1231 1163 1118 1064 1048 1010 979 936 938 837 763 613 546 445 402 363 238 230 219 216 208 208 208 210 209 211 212 210 212 226 264 354 424 537 808 819 823 937 1049 1171 1268 1396 1436 1461 1505 1479 1418 1422 1414 1491 1521 1513 1549 1584 1665 1730 1737 1734 1755 1756 1738 1715 1716 1644 1562 1494 1416 1354 1247 1307 1370 1359 1359 1369 1322 1372 1303 1325 1294 1291 1257 1265 1302 1303 1319 1319 1293 1222 1199 1187 1148 1119 1059 1010 880 968 984
2155 2108 2010 1863 1745 1661 1574 1578 1525 1461 1393 1312 1251 1237 1206 1174 1150 1221 1293 1349 1382 1397 1403 1385 1450 1527 1555 1544 1531 1572 1606 1603 1483 1353 1237 1217 1319 1473 1606 1669 1569 1452 1366 1324 1309 1367 1450 1540 1592 1637 1683 1751 1748 1722 1761 1776 1764 1708 1621 1628 1688 1802 1803 1750 1706 1782 1819 1818 1846 1747 1733 1801 1849 1853 1899 1838 1765 1830 1761 1661 1581 1508 1410 1338 1272 1224 1316 1281 1337 1441 1519 1656 1716 1752 1684 1704 1794 2013 2258 2346 2444 2318 2237 2212 2189 2152 2120 2140 2155 2258 2222 2015 1829 1659 1550 1472 1447 1361 1299 1263 1257 1220 1048 914 824 872 1115 1492 1539 1583 1647 1647 1638 1589 1525 1385 1283 1225 1181 1184 1130 879 734 677 630 606 596 574 555 549 557 562 568 571 512 450 427 318 432 456 457 451 400 470 472 477 495 511 581 619 621 493 611 711 810 845 894 945 966 1057 1096 1012 1125 1118 1153 1260 1357 1525 1641 1645 1576 1466 1463 1350 1336 1427 1347 1316 1286 1202 1150 1106 1088 1079 1049 1021 1099 1035 1068 754 650 627 612 509 243 228 217 211 207 210 207 209 210 211 211 211 211 230 293 396 486 603 760 858 952 928 922 1037 1211 1273 1331 1364 1420 1382 1368 1386 1440 1513 1569 1563 1613 1680 1748 1724 1728 1732 1727 1710 1712 1670 1676 1617 1524 1446 1380 1359 1292 1235 1295 1314 1315 1260 1295 1323 1265 1302 1275 1234 1219 1255 1306 1335 1320 1326 1263 1218 1194 1173 1146 1114 1061 945 864 952 989
2044 2002 1966 1866 1752 1646 1556 1455 1428 1378 1294 1226 1203 1202 1182 1183 1283 1368 1445 1475 1515 1533 1521 1461 1520 1593 1617 1585 1589 1636 1674 1654 1533 1375 1250 1237 1315 1490 1575 1688 1652 1519 1401 1353 1319 1343 1440 1544 1622 1682 1759 1816 1813 1772 1803 1835 1823 1753 1679 1643 1716 1838 1884 1820 1763 1815 1921 1939 1904 1806 1803 1902 1958 1952 1908 1879 1855 1820 1762 1682 1616 1524 1409 1337 1251 1216 1280 1392 1437 1579 1549 1728 1840 1855 1857 1966 1996 2162 2345 2458 2372 2241 2220 2210 2212 2147 2178 2200 2267 2280 2114 1938 1783 1699 1607 1520 1449 1356 1299 1257 1256 1126 1007 862 847 942 1179 1516 1615 1658 1663 1645 1631 1544 1480 1365 1316 1259 1200 1215 1165 908 757 691 643 621 598 574 561 557 561 552 543 542 483 437 415 314 413 450 454 423 421 457 464 473 476 503 580 545 447 580 711 762 822 903 939 997 1068 1128 1186 1148 1164 1255 1260 1310 1387 1546 1601 1396 1338 1315 1346 1232 1290 1324 1348 1342 1321 1252 1185 1163 1169 1165 1147 1122 1163 1143 1136 1060 805 756 703 552 324 216 212 209 207 208 207 207 209 212 211 209 214 246 312 436 548 667 818 926 1061 1083 1054 1106 1041 1094 1142 1214 1326 1304 1333 1336 1406 1507 1555 1595 1638 1689 1722 1707 1709 1721 1682 1649 1648 1629 1618 1613 1540 1432 1328 1321 1321 1243 1204 1238 1249 1192 1246 1255 1244 1271 1245 1181 1202 1256 1346 1364 1332 1289 1248 1220 1201 1178 1152 1127 1090 961 855 913 939
1964 1874 1835 1778 1668 1574 1475 1387 1335 1273 1197 1185 1177 1184 1226 1306 1414 1480 1537 1583 1630 1650 1635 1539 1516 1619 1651 1654 1663 1678 1745 1692 1593 1409 1260 1235 1321 1475 1585 1701 1682 1585 1503 1423 1336 1375 1477 1607 1658 1725 1827 1893 1861 1855 1872 1856 1849 1814 1739 1721 1786 1850 1964 1903 1847 1828 1958 1993 1942 1849 1872 2005 2037 1985 1907 1862 1811 1757 1703 1641 1593 1523 1410 1315 1226 1248 1396 1488 1588 1736 1678 1776 1876 2009 2041 2114 2239 2249 2395 2463 2284 2261 2218 2210 2241 2239 2313 2378 2376 2265 2087 1919 1794 1698 1605 1518 1436 1332 1266 1233 1174 1052 902 858 928 1054 1255 1462 1663 1699 1689 1656 1649 1580 1493 1380 1324 1273 1221 1244 1207 933 777 693 661 633 600 588 562 558 559 546 519 500 461 423 388 336 400 449 450 385 403 459 456 471 475 491 533 469 623 694 737 805 867 925 977 1041 1122 1179 1242 1294 1311 1320 1398 1441 1450 1562 1513 1317 1232 1196 1251 1182 1219 1363 1382 1373 1365 1323 1247 1172 1171 1181 1170 1174 1213 1190 1206 1127 1004 868 754 554 345 213 208 207 207 208 206 206 208 209 211 208 217 254 328 429 540 684 865 974 1242 1262 1196 1248 1227 1254 1278 1182 1214 1266 1283 1314 1412 1497 1548 1603 1637 1652 1678 1679 1674 1671 1655 1591 1607 1610 1540 1541 1486 1378 1298 1260 1270 1250 1222 1161 1172 1152 1189 1180 1219 1221 1200 1167 1205 1241 1287 1337 1302 1283 1254 1233 1215 1188 1158 1139 1101 1007 901 866 902
1892 1857 1747 1668 1559 1473 1389 1320 1257 1213 1188 1183 1192 1255 1304 1384 1476 1562 1639 1662 1699 1755 1723 1608 1521 1616 1673 1722 1716 1713 1760 1678 1561 1409 1278 1240 1316 1461 1610 1740 1808 1699 1639 1533 1403 1425 1537 1623 1662 1746 1870 1961 1943 1921 1922 1899 1871 1872 1835 1835 1873 1904 2031 1973 1879 1868 1932 2012 1955 1898 1946 2056 2075 2006 1931 1878 1815 1733 1648 1575 1508 1464 1376 1294 1245 1305 1476 1550 1714 1887 1780 1773 1984 2194 2166 2279 2415 2449 2487 2340 2306 2287 2248 2283 2413 2406 2297 2240 2221 2274 2097 1920 1786 1702 1610 1519 1378 1242 1144 1127 1034 940 897 898 1004 1152 1317 1590 1729 1745 1708 1668 1624 1563 1468 1378 1321 1280 1237 1219 1186 933 775 709 675 640 616 599 565 556 550 534 490 478 444 419 320 363 394 446 441 363 393 386 379 426 468 475 468 545 646 719 758 827 896 949 987 1073 1156 1218 1285 1345 1409 1420 1425 1516 1574 1550 1412 1318 1195 1154 1171 1190 1149 1333 1413 1408 1393 1364 1306 1169 1162 1167 1172 1189 1206 1209 1204 1060 907 817 770 552 326 210 207 208 207 207 208 209 210 211 211 208 215 252 324 428 539 732 870 994 1343 1392 1308 1302 1323 1352 1351 1288 1234 1216 1266 1326 1408 1495 1538 1584 1607 1654 1709 1694 1671 1631 1600 1561 1563 1529 1490 1444 1421 1346 1256 1219 1230 1218 1230 1238 1169 1115 1138 1146 1185 1216 1177 1180 1205 1276 1320 1335 1324 1276 1251 1244 1227 1206 1173 1149 1114 1057 946 851 877
1819 1779 1699 1585 1459 1392 1295 1225 1202 1191 1189 1234 1299 1372 1416 1459 1542 1644 1738 1757 1809 1856 1801 1662 1552 1632 1704 1769 1778 1793 1754 1626 1491 1379 1298 1255 1308 1509 1693 1845 1876 1797 1657 1516 1432 1506 1594 1662 1717 1755 1909 2039 2080 1993 1939 1968 1944 1945 1925 1940 1900 1919 2025 2021 1915 1894 1940 2025 1952 1942 2047 2082 2033 1968 1935 1881 1832 1738 1644 1588 1538 1447 1342 1301 1261 1440 1536 1627 1865 1972 1996 2004 1977 2188 2333 2368 2457 2532 2414 2340 2352 2301 2283 2430 2426 2382 2334 2340 2231 2025 2005 1882 1768 1677 1598 1498 1383 1222 1060 1024 989 941 928 964 1099 1270 1461 1721 1799 1769 1712 1681 1602 1512 1439 1364 1312 1275 1244 1237 1182 926 782 709 669 643 627 604 561 552 538 516 484 394 428 375 299 356 379 434 428 356 357 387 454 462 479 508 518 538 612 722 778 846 908 962 1003 1079 1161 1242 1303 1335 1389 1519 1546 1582 1671 1527 1469 1401 1317 1194 1036 1163 1087 1307 1421 1424 1414 1389 1302 1156 1158 1163 1167 1175 1196 1201 1171 1042 859 773 675 536 295 210 206 206 206 208 209 210 209 209 209 209 217 241 316 426 554 761 902 1001 1381 1427 1442 1435 1390 1412 1378 1343 1292 1266 1275 1307 1418 1488 1514 1562 1612 1678 1731 1752 1694 1611 1539 1511 1511 1482 1401 1373 1315 1309 1222 1131 1174 1192 1219 1216 1163 1115 1102 1124 1182 1188 1169 1167 1188 1280 1293 1342 1345 1321 1274 1265 1243 1214 1169 1154 1142 1118 1009 935 816
1733 1654 1583 1483 1389 1318 1259 1208 1219 1226 1279 1367 1450 1513 1574 1582 1564 1647 1781 1860 1901 1903 1785 1668 1621 1666 1755 1829 1863 1870 1732 1652 1587 1438 1295 1263 1318 1505 1757 1951 1854 1743 1571 1479 1521 1597 1682 1747 1716 1795 1951 2089 2174 2062 2037 2039 1995 2085 2015 2031 1953 1936 2027 2070 1958 1922 1945 2027 1978 1989 2081 2069 1959 1886 1844 1850 1757 1664 1619 1572 1517 1430 1334 1279 1394 1524 1649 1838 2033 2159 2168 2185 2155 2228 2307 2347 2457 2465 2371 2383 2374 2335 2322 2407 2355 2342 2453 2298 2226 2155 1933 1838 1706 1627 1541 1439 1345 1211 1057 990 979 979 966 1040 1184 1392 1657 1854 1855 1806 1716 1675 1581 1482 1413 1368 1298 1268 1247 1235 1203 961 796 706 671 646 631 623 581 544 528 499 469 411 352 338 302 314 339 385 419 339 418 460 471 482 493 501 514 533 576 684 808 864 923 973 1016 1077 1143 1199 1158 1103 1196 1368 1458 1483 1445 1579 1570 1496 1459 1244 1003 1046 946 1071 1428 1446 1372 1310 1215 1153 1156 1159 1166 1138 1131 1123 1107 1046 988 920 801 570 322 209 208 207 206 208 210 210 211 209 208 210 212 219 298 428 553 791 896 1016 1364 1444 1478 1476 1312 1402 1357 1365 1308 1281 1318 1330 1350 1420 1500 1585 1673 1733 1750 1768 1696 1632 1530 1468 1456 1424 1363 1274 1224 1218 1106 1064 1096 1143 1172 1190 1154 1101 1073 1138 1174 1157 1118 1122 1146 1208 1292 1306 1324 1317 1304 1278 1245 1179 1138 1104 1073 1009 931 880 803
1653 1562 1472 1415 1317 1275 1214 1206 1253 1333 1428 1480 1557 1648 1677 1647 1571 1625 1779 1910 1950 1839 1720 1664 1669 1726 1814 1903 1948 1887 1818 1715 1591 1433 1290 1277 1386 1589 1814 1912 1806 1676 1570 1554 1587 1697 1790 1806 1741 1869 1986 2130 2196 2134 2113 2076 2046 2119 2081 2086 1992 1979 2029 2116 1983 1953 1953 2039 1995 2020 2057 2026 1926 1838 1777 1761 1701 1632 1598 1551 1494 1414 1328 1293 1490 1560 1619 1897 1992 2056 2030 2187 2280 2337 2348 2406 2569 2440 2394 2501 2477 2392 2460 2487 2345 2194 2364 2211 2065 1996 1871 1865 1673 1596 1518 1457 1334 1177 1009 990 1003 1010 1039 1127 1284 1546 1883 1891 1871 1815 1723 1657 1564 1468 1405 1340 1295 1265 1250 1236 1205 1012 811 720 674 652 636 642 583 550 524 476 461 434 365 395 323 296 309 352 427 374 399 462 475 472 495 511 524 544 584 637 784 868 926 981 1021 1074 1098 1111 1002 1022 1129 1201 1211 1284 1451 1509 1467 1435 1262 1207 998 915 901 1022 1327 1242 1247 1202 1174 1160 1146 1126 1080 1032 1036 1060 1063 1053 1004 876 818 585 343 208 207 207 207 208 210 210 211 210 210 212 214 221 289 412 605 806 915 1058 1327 1404 1401 1387 1200 1171 1182 1205 1227 1317 1354 1380 1375 1436 1526 1598 1673 1707 1749 1732 1676 1609 1497 1455 1416 1357 1318 1310 1235 1157 1082 1006 979 1048 1107 1161 1134 1042 1026 1070 1124 1126 1088 1091 1102 1138 1205 1235 1207 1228 1244 1192 1117 1089 1069 1034 985 914 879 804 801
1546 1460 1427 1313 1240 1219 1211 1271 1373 1470 1531 1624 1701 1770 1801 1697 1595 1621 1754 1904 1957 1807 1695 1692 1737 1812 1888 1987 2032 1971 1826 1691 1586 1433 1314 1307 1463 1713 1848 1981 1834 1719 1626 1650 1738 1794 1908 1782 1793 1918 1991 2178 2246 2169 2165 2142 2169 2268 2129 2135 2035 2001 2048 2124 2006 1964 1987 2047 2036 2046 2015 1982 1911 1851 1780 1760 1671 1625 1539 1501 1461 1390 1338 1307 1434 1531 1563 1657 1761 1787 1825 1983 2210 2340 2368 2434 2626 2533 2536 2513 2541 2528 2349 2508 2330 2076 2137 2056 1933 1836 1778 1687 1609 1568 1508 1460 1357 1107 1005 1029 1064 1103 1121 1231 1503 1814 1955 1907 1831 1761 1699 1625 1532 1414 1369 1311 1274 1256 1249 1239 1206 1071 823 712 674 655 645 636 581 551 520 464 439 434 434 387 349 297 303 348 379 341 438 463 455 480 509 523 555 575 564 666 747 817 770 816 911 895 919 902 922 966 1050 1138 1257 1389 1527 1577 1373 1170 1126 1050 959 908 846 966 1025 1073 1184 1136 1108 1064 1023 1037 1038 1039 1044 1075 1069 1047 1043 983 913 614 369 207 208 206 208 210 211 211 212 211 209 212 214 221 298 388 500 738 877 1055 1246 1251 1204 1155 1131 1064 1099 1139 1195 1309 1367 1427 1434 1472 1532 1614 1676 1704 1720 1680 1639 1554 1517 1491 1463 1434 1421 1412 1339 1258 1174 1068 948 964 1052 1063 1032 943 932 993 1029 1004 1002 1037 1080 1102 1121 1112 1092 1103 1083 1016 979 969 959 906 876 853 821 818 852
1443 1385 1339 1274 1238 1218 1236 1378 1474 1589 1665 1701 1760 1821 1843 1736 1648 1624 1742 1904 1948 1808 1733 1749 1813 1840 1909 2055 2127 2014 1852 1722 1593 1409 1339 1352 1530 1815 1969 2063 1921 1797 1741 1853 1943 2009 1939 1848 1900 1945 1988 2204 2233 2189 2233 2364 2374 2271 2204 2119 2071 2025 2080 2093 2014 2004 2043 2074 2156 2105 2059 1996 1921 1852 1822 1774 1678 1634 1605 1531 1463 1413 1368 1303 1487 1577 1592 1628 1694 1723 1781 1937 2032 2155 2302 2422 2505 2552 2463 2406 2342 2320 2224 2185 2271 2021 2050 1970 1887 1769 1675 1618 1576 1512 1469 1415 1230 1082 1037 1069 1101 1122 1198 1321 1650 1876 1878 1801 1762 1751 1698 1604 1481 1391 1333 1277 1253 1227 1260 1242 1171 1046 815 717 680 659 649 632 576 551 515 471 425 428 415 373 343 307 299 350 334 385 435 422 460 477 520 541 556 588 588 634 679 697 733 762 790 821 778 868 999 1090 1109 1208 1311 1422 1643 1509 1407 1199 1052 1027 981 945 814 914 940 1042 1026 1006 1006 1013 1028 1048 1052 1062 1063 1090 1099 1056 1062 1063 936 646 382 207 208 208 209 210 209 210 212 213 209 213 213 215 288 425 503 698 845 1002 1138 1124 1061 1029 1028 981 1043 1094 1148 1253 1345 1425 1472 1504 1552 1612 1657 1673 1649 1626 1590 1558 1519 1516 1522 1506 1498 1428 1351 1244 1110 1026 912 917 996 968 927 895 803 893 886 883 901 938 955 993 1055 1094 1041 975 939 896 874 850 841 788 814 804 796 804 823
1363 1322 1292 1251 1224 1222 1294 1461 1583 1649 1714 1756 1818 1872 1907 1797 1680 1637 1726 1918 1979 1830 1795 1837 1861 1885 1957 2050 2179 2032 1873 1739 1599 1451 1373 1384 1573 1873 2013 2153 1987 1898 1886 1972 2057 2158 1982 1910 1983 1974 2007 2205 2342 2316 2396 2412 2324 2268 2182 2120 2029 2077 2150 2088 2071 2045 2078 2153 2145 2080 2023 1966 1899 1843 1815 1765 1684 1644 1619 1532 1474 1424 1392 1307 1455 1613 1736 1732 1781 1846 1878 2002 2049 2270 2341 2422 2480 2504 2476 2421 2333 2236 2163 2062 2139 1980 1950 1895 1817 1714 1613 1506 1510 1528 1327 1332 1174 1067 1048 1080 1095 1131 1209 1380 1702 1824 1796 1760 1730 1701 1639 1552 1469 1369 1313 1257 1191 1162 1231 1198 1076 987 806 734 686 663 648 639 583 548 511 473 414 420 404 365 340 329 294 309 346 345 396 450 465 483 530 545 541 582 610 626 641 690 723 745 689 751 876 961 1052 1188 1238 1280 1408 1574 1699 1528 1349 1203 1167 1140 997 961 838 790 945 963 950 1007 1023 1032 1054 1055 1071 1088 1095 1108 1124 1077 1086 1067 839 647 377 206 208 208 209 211 210 209 211 213 209 212 213 226 377 487 576 743 839 953 1050 1015 962 934 953 938 1027 1126 1218 1306 1381 1480 1491 1524 1557 1569 1612 1629 1606 1592 1565 1543 1520 1499 1522 1469 1470 1355 1275 1189 1085 1001 905 878 918 904 825 754 745 786 783 780 818 855 885 887 962 952 938 892 903 803 780 779 779 780 782 789 854 869 820
1343 1318 1297 1235 1240 1280 1439 1531 1620 1717 1771 1822 1887 1950 1970 1913 1771 1730 1780 1952 1947 1899 1922 1963 1983 1998 2082 2115 2122 2033 1935 1805 1676 1506 1436 1471 1704 1957 2084 2208 2139 2022 2003 2046 2204 2202 2012 1925 2057 2019 2069 2189 2247 2281 2417 2418 2364 2244 2149 2076 2044 2138 2238 2150 2125 2122 2107 2141 2145 2072 2012 1961 1889 1829 1779 1739 1676 1635 1596 1528 1496 1458 1386 1329 1440 1610 1741 1909 2032 1984 2214 2320 2086 2207 2427 2441 2491 2540 2511 2441 2351 2259 2194 1947 1916 1856 1841 1824 1740 1632 1541 1421 1333 1284 1256 1216 1150 1093 1056 1068 1114 1180 1240 1453 1768 1757 1723 1678 1646 1600 1547 1502 1420 1302 1247 1279 1166 1098 1124 1124 1000 970 826 719 685 663 645 633 584 548 521 472 391 422 401 359 335 328 305 294 345 370 445 468 473 502 537 520 506 573 586 593 645 632 647 680 671 832 843 874 988 1117 1160 1292 1489 1633 1768 1618 1377 1214 1054 808 750 733 769 716 834 898 1014 1034 1052 1056 1068 1080 1085 1100 1113 1128 1142 1103 1088 921 747 500 382 208 208 208 210 211 211 210 212 209 211 213 209 233 384 532 626 793 895 934 952 912 861 832 888 980 1072 1181 1272 1373 1425 1488 1499 1512 1503 1502 1546 1575 1585 1567 1557 1538 1511 1454 1419 1328 1347 1261 1194 1127 1054 987 891 787 784 799 724 726 778 722 720 725 759 769 783 802 815 808 818 803 780 779 779 785 805 863 841 892 960 953 857
1380 1335 1265 1243 1278 1357 1479 1576 1677 1757 1829 1896 1950 2031 2048 1906 1814 1783 1889 2034 1980 1905 1954 2073 2133 2109 2126 2310 2249 2116 1970 1841 1688 1572 1525 1633 1799 2027 2171 2319 2191 2038 2010 2135 2216 2235 2069 1966 2091 2170 2206 2193 2259 2286 2422 2434 2337 2253 2128 2114 2155 2231 2205 2143 2079 2071 2062 2064 2071 2065 2033 1977 1907 1833 1774 1741 1670 1646 1602 1547 1526 1485 1390 1331 1417 1604 1717 1910 2150 2265 2225 2397 2117 2119 2393 2462 2535 2632 2555 2506 2406 2332 2281 1915 1828 1775 1758 1751 1721 1644 1524 1414 1291 1296 1251 1221 1209 1162 1069 1095 1173 1281 1348 1615 1765 1718 1658 1595 1563 1524 1468 1422 1399 1351 1291 1191 1156 1089 987 1011 970 927 826 732 683 655 635 624 583 545 519 467 386 403 401 358 329 321 313 284 382 399 440 459 480 518 521 489 492 529 550 536 549 540 605 660 750 892 1000 937 1002 1017 1062 1203 1364 1497 1803 1513 1305 1042 882 827 766 708 677 644 715 929 1046 1062 1076 1086 1093 1099 1102 1116 1133 1144 1155 1124 1056 888 720 481 348 227 212 209 209 209 210 210 211 210 212 212 210 224 369 491 610 737 840 875 857 803 769 868 967 1022 1100 1254 1334 1429 1470 1505 1510 1505 1485 1491 1534 1566 1572 1554 1484 1509 1493 1366 1252 1191 1163 1152 1130 1095 1035 1006 942 857 769 711 745 867 920 877 847 804 796 750 809 779 779 779 779 779 779 786 864 869 875 957 968 1004 1043 1013 977
1471 1356 1258 1252 1315 1365 1511 1604 1706 1789 1856 1952 2022 2074 2051 1952 1915 1920 1975 2085 1994 1964 2031 2132 2277 2211 2175 2402 2280 2150 1998 1847 1743 1639 1635 1747 1932 2070 2181 2334 2136 2014 2044 2121 2305 2332 2098 1994 2114 2188 2243 2363 2358 2368 2498 2360 2293 2246 2196 2194 2261 2202 2112 2048 2005 2001 1950 1949 1974 2005 2003 1970 1931 1860 1797 1735 1674 1651 1605 1553 1550 1495 1387 1345 1438 1676 1754 1906 2127 2203 2411 2494 2198 2122 2308 2434 2566 2622 2654 2588 2452 2387 2226 1986 1858 1783 1770 1748 1696 1693 1586 1426 1282 1275 1260 1202 1176 1183 1103 1178 1318 1359 1418 1681 1733 1699 1657 1580 1529 1515 1497 1488 1448 1376 1307 1222 1168 1108 1045 907 913 859 772 727 680 651 630 604 576 545 518 486 426 338 345 325 320 316 289 320 359 414 446 467 490 513 500 459 470 483 497 550 557 620 700 742 861 976 1093 1121 1078 1152 1194 1311 1412 1524 1713 1501 1252 1013 916 849 783 729 673 643 646 847 992 1086 1092 1111 1124 1126 1081 1095 1121 1154 1156 1149 1105 959 724 480 354 210 210 207 209 209 210 211 209 212 212 207 210 229 338 448 626 768 839 811 759 699 790 914 990 1062 1159 1274 1390 1492 1520 1526 1519 1513 1489 1486 1536 1562 1565 1555 1467 1353 1331 1271 1226 1063 1042 1054 1059 1028 990 966 922 853 741 687 754 880 970 1046 986 952 886 869 802 863 821 810 812 834 854 885 956 912 913 1009 1035 1097 1115 1112 1053
1458 1314 1272 1269 1357 1468 1520 1603 1693 1779 1866 1948 2035 2180 2106 2028 2048 2047 2115 2100 2023 2024 2075 2186 2244 2355 2303 2447 2283 2184 2059 1897 1775 1604 1740 1853 2023 2106 2300 2332 2149 2018 2019 2183 2320 2360 2150 2056 2080 2130 2211 2299 2408 2559 2456 2382 2359 2364 2255 2301 2199 2117 2001 1938 1900 1913 1908 1885 1896 1916 1920 1907 1899 1850 1794 1718 1671 1646 1599 1569 1551 1490 1403 1369 1441 1581 1707 1840 1992 2193 2417 2531 2531 2225 2274 2316 2449 2545 2613 2450 2410 2280 2129 2022 1950 1898 1827 1778 1613 1606 1595 1417 1294 1259 1241 1194 1161 1151 1123 1202 1375 1419 1462 1745 1759 1704 1650 1560 1541 1510 1483 1462 1453 1391 1307 1232 1155 1101 985 879 790 727 691 678 673 640 623 612 572 540 516 444 405 378 395 362 296 311 299 329 402 421 452 472 482 473 462 452 454 456 532 609 607 649 754 840 853 1048 1166 1259 1155 1233 1345 1284 1552 1625 1438 1246 1168 1061 936 854 781 800 644 572 600 641 944 993 984 1125 1122 1144 1068 1003 1059 1134 1162 1128 1000 931 680 476 370 205 209 206 208 208 211 211 210 213 211 207 210 215 391 497 640 728 702 656 652 758 800 856 948 1067 1182 1328 1434 1524 1570 1572 1537 1499 1474 1491 1535 1569 1600 1573 1462 1308 1155 1109 1110 1084 1020 939 983 960 893 881 852 770 683 723 797 847 948 1069 1078 1046 994 931 848 944 921 898 848 927 976 1036 1076 1047 963 1023 1080 1148 1193 1185 1097
1437 1328 1298 1326 1421 1558 1669 1652 1695 1803 1951 2033 2046 2095 2190 2113 2145 2140 2214 2158 2114 2157 2199 2296 2375 2514 2529 2362 2221 2116 2005 1860 1709 1686 1826 1984 2128 2236 2321 2345 2201 2040 2040 2229 2405 2433 2161 2139 2207 2149 2215 2296 2363 2471 2498 2482 2336 2230 2214 2158 2099 2049 1942 1891 1887 1888 1882 1833 1846 1852 1845 1822 1802 1792 1758 1715 1665 1637 1578 1565 1552 1498 1417 1388 1446 1580 1724 1879 2038 2205 2492 2636 2630 2349 2513 2445 2439 2519 2608 2437 2271 2215 2072 2008 1946 1869 1824 1757 1592 1451 1516 1379 1286 1229 1203 1201 1197 1206 1204 1241 1387 1512 1566 1767 1760 1720 1640 1579 1533 1504 1456 1398 1405 1365 1271 1192 1112 1069 946 901 800 772 696 639 584 592 595 574 559 536 516 489 442 425 407 361 321 283 277 339 374 431 441 463 460 445 387 435 466 522 583 642 700 756 842 964 1043 1072 1076 1185 1287 1324 1414 1499 1670 1716 1590 1444 1308 1303 1161 1044 886 905 777 525 578 548 670 810 959 1096 1101 1045 1058 933 942 1043 1152 1154 874 769 684 518 299 211 211 209 209 208 208 209 210 211 208 210 211 224 411 550 619 575 608 698 778 814 846 924 1047 1114 1224 1362 1454 1525 1565 1578 1513 1474 1443 1492 1530 1572 1601 1542 1465 1340 1161 1077 974 981 982 923 907 870 804 774 748 679 704 813 907 936 962 1038 1095 1104 1075 951 922 1010 1003 999 894 957 1034 1102 1165 1137 1055 1043 1053 1123 1207 1188 1057
1462 1347 1321 1374 1486 1608 1727 1758 1797 1871 1934 2063 2146 2153 2269 2138 2138 2142 2280 2221 2217 2219 2244 2377 2533 2600 2464 2288 2144 2007 1881 1758 1688 1768 1872 2052 2175 2343 2431 2336 2195 2078 2063 2281 2448 2451 2235 2163 2232 2257 2310 2294 2363 2452 2590 2496 2354 2204 2183 2097 2026 1950 1923 1912 1906 1958 1827 1784 1794 1795 1803 1785 1752 1737 1722 1706 1668 1623 1576 1557 1546 1491 1444 1428 1507 1550 1680 1778 1976 2130 2348 2521 2640 2507 2527 2718 2649 2628 2614 2438 2173 2082 2022 1965 1890 1838 1741 1713 1555 1388 1360 1318 1233 1233 1177 1177 1180 1218 1205 1291 1439 1570 1640 1770 1764 1724 1667 1596 1547 1474 1403 1306 1282 1279 1195 1118 1031 949 863 796 762 771 770 690 648 567 528 526 517 502 459 450 412 442 417 353 295 273 285 327 385 422 438 452 431 385 416 460 499 560 625 677 771 829 861 994 1121 1209 1185 1218 1343 1439 1474 1650 1677 1829 1857 1779 1507 1430 1281 1224 1107 1023 829 623 435 452 556 666 757 1010 909 686 771 816 831 966 1073 969 759 610 543 353 205 212 210 210 209 209 210 210 211 209 207 210 210 236 420 545 531 558 679 754 793 831 905 986 1103 1213 1254 1385 1488 1514 1535 1552 1484 1436 1427 1485 1515 1542 1561 1564 1462 1340 1209 1184 1030 887 858 895 830 850 724 686 676 718 769 873 981 1068 1067 1106 1112 1121 1112 948 1012 1085 1092 1080 945 996 1106 1186 1228 1223 1107 1093 1090 1080 1173 1185 1045
1484 1379 1365 1431 1556 1688 1820 2037 2024 1982 2018 2047 2222 2272 2348 2221 2194 2216 2330 2323 2284 2304 2305 2349 2479 2495 2364 2203 2056 1910 1786 1690 1702 1808 1938 2102 2287 2471 2479 2386 2262 2170 2156 2288 2459 2453 2217 2154 2211 2346 2504 2402 2390 2471 2523 2493 2416 2267 2185 2054 1947 1918 1930 1932 1986 1999 1866 1802 1791 1779 1772 1741 1709 1693 1687 1677 1654 1615 1570 1555 1521 1481 1433 1502 1620 1637 1679 1752 1827 2045 2184 2425 2536 2711 2712 2683 2612 2440 2385 2353 2148 2048 2000 1950 1835 1732 1620 1559 1484 1341 1278 1241 1199 1211 1177 1177 1177 1177 1234 1334 1465 1649 1771 1762 1760 1736 1685 1587 1533 1450 1319 1236 1184 1157 1104 1069 1095 984 881 797 731 675 656 613 602 611 591 537 498 487 501 457 464 449 413 369 302 272 279 343 388 422 441 429 356 386 450 496 545 603 683 764 859 911 987 985 1066 1222 1338 1329 1358 1460 1612 1749 1764 1832 1768 1674 1538 1442 1336 1277 1253 1116 960 802 555 377 463 530 596 593 552 525 449 467 451 500 495 498 413 331 272 216 210 212 212 210 210 209 208 211 210 208 209 210 211 268 384 391 534 620 690 722 763 845 933 1041 1171 1279 1340 1430 1521 1506 1488 1500 1454 1381 1436 1457 1484 1509 1527 1505 1467 1385 1279 1244 1079 944 860 777 764 795 724 672 725 762 846 890 989 1087 1158 1191 1209 1161 1063 1045 1170 1253 1237 1175 1044 1053 1168 1267 1291 1281 1167 1174 1163 1117 1112 1154 1009
1511 1434 1417 1478 1648 1813 2003 2221 2249 2191 2107 2061 2234 2435 2421 2327 2298 2322 2375 2480 2380 2387 2351 2377 2484 2428 2288 2119 1951 1856 1776 1729 1743 1822 2061 2208 2291 2457 2428 2397 2358 2272 2206 2328 2487 2400 2239 2191 2217 2380 2530 2548 2664 2552 2417 2341 2317 2289 2189 2086 1970 1936 1938 2004 2092 2070 1945 1892 1845 1823 1795 1771 1736 1726 1716 1661 1630 1595 1558 1532 1490 1458 1504 1569 1726 1828 1763 1783 1851 1926 2091 2473 2630 2721 2693 2585 2423 2301 2217 2119 2051 1998 1955 1858 1775 1662 1519 1399 1374 1315 1260 1214 1199 1177 1177 1178 1247 1272 1340 1391 1494 1714 1820 1779 1756 1730 1640 1524 1443 1381 1339 1333 1288 1188 1192 1156 1089 1017 931 860 769 697 645 610 556 539 554 550 540 533 501 492 472 448 406 368 331 275 279 321 371 402 433 367 370 422 469 521 592 672 736 848 940 1005 1114 1153 1098 1194 1358 1457 1488 1577 1684 1781 1814 1773 1670 1545 1456 1334 1282 1275 1269 1216 1172 890 723 554 333 371 431 407 360 320 234 219 216 215 211 225 211 213 210 212 212 213 210 210 209 208 211 210 208 209 209 210 212 332 462 460 504 571 640 713 738 843 956 1095 1222 1306 1407 1500 1516 1493 1437 1464 1428 1347 1403 1427 1449 1474 1474 1470 1385 1351 1242 1147 1023 897 763 706 685 668 681 738 756 814 826 901 974 1074 1128 1169 1230 1192 1089 1185 1200 1322 1313 1229 1104 1124 1206 1338 1365 1339 1261 1267 1238 1175 1076 1047 949
1617 1500 1491 1526 1630 1805 1988 2244 2339 2186 2116 2088 2217 2446 2487 2396 2391 2444 2450 2541 2484 2457 2456 2494 2527 2362 2227 2083 1982 1891 1921 1883 1874 1874 2011 2249 2412 2548 2494 2435 2403 2321 2258 2366 2478 2466 2291 2288 2237 2334 2456 2705 2627 2528 2412 2282 2282 2280 2154 2102 2069 1988 1977 2078 2098 2022 1968 1927 1914 1879 1867 1838 1804 1750 1748 1668 1624 1593 1547 1503 1479 1503 1551 1611 1771 1995 1953 1840 1915 1972 2091 2271 2540 2765 2714 2546 2603 2299 2230 2119 1992 1900 1869 1826 1748 1570 1428 1334 1325 1326 1276 1197 1198 1177 1185 1220 1295 1308 1404 1485 1596 1819 1840 1793 1722 1670 1592 1550 1488 1447 1453 1425 1359 1272 1165 1091 972 902 871 876 819 724 666 631 560 522 504 524 522 513 500 490 466 431 386 370 332 275 279 316 372 404 399 340 388 451 503 563 687 785 832 927 1022 1071 1175 1261 1240 1329 1350 1480 1587 1683 1773 1797 1570 1676 1564 1476 1406 1288 1272 1259 1255 1224 1171 875 705 589 376 309 298 268 231 218 212 209 209 208 208 209 209 208 212 213 212 213 212 208 207 209 211 209 206 208 209 210 262 388 477 492 527 604 696 774 817 872 1002 1142 1250 1335 1441 1498 1503 1475 1409 1417 1412 1334 1356 1399 1429 1464 1456 1359 1308 1257 1117 1072 963 859 688 664 698 718 769 743 819 877 907 906 966 1043 1107 1161 1252 1235 1192 1303 1345 1410 1392 1253 1159 1183 1275 1376 1432 1387 1333 1342 1288 1178 1075 1049 943
1705 1593 1594 1687 1725 1692 1869 2100 2316 2235 2144 2181 2281 2374 2568 2572 2545 2529 2544 2631 2606 2573 2648 2525 2445 2297 2163 2051 1942 2035 2121 1995 1968 1962 2095 2217 2395 2607 2559 2532 2452 2344 2303 2398 2464 2552 2404 2278 2282 2375 2472 2631 2655 2529 2444 2311 2262 2249 2214 2133 2056 2005 2066 2126 2063 2023 1976 1947 1953 1917 1912 1889 1841 1789 1760 1660 1625 1615 1556 1496 1504 1545 1603 1720 1934 2041 2153 1914 1998 2069 2396 2386 2529 2583 2798 2693 2436 2466 2285 2159 2052 1865 1752 1700 1574 1497 1384 1331 1324 1336 1333 1264 1227 1202 1319 1316 1339 1384 1456 1547 1691 1869 1860 1809 1702 1656 1648 1612 1583 1536 1510 1413 1242 1137 1047 976 865 799 775 799 831 751 680 627 592 551 498 463 488 505 467 482 462 437 389 346 304 268 277 322 381 386 321 383 423 490 541 613 764 891 963 1022 1095 1159 1263 1336 1369 1398 1476 1521 1633 1727 1820 1719 1500 1493 1510 1392 1322 1236 1235 1236 1231 1159 955 742 591 460 276 273 270 247 227 220 210 208 208 208 208 209 208 212 213 213 213 212 210 207 209 210 210 209 208 209 210 274 372 424 472 505 548 622 715 819 934 1010 1008 1172 1270 1387 1472 1509 1556 1493 1427 1358 1370 1310 1332 1387 1419 1441 1402 1264 1223 1136 1015 940 893 822 717 693 809 806 856 764 795 913 994 998 1044 1041 1121 1214 1275 1301 1255 1384 1445 1493 1451 1340 1262 1225 1346 1449 1472 1444 1409 1396 1311 1158 1057 1002 961
1881 1745 1722 1821 1860 1808 1826 2072 2224 2280 2212 2267 2357 2420 2562 2802 2789 2659 2653 2739 2745 2718 2634 2459 2302 2160 2055 1988 2041 2223 2149 2095 2051 2085 2166 2246 2399 2572 2634 2543 2468 2374 2316 2417 2519 2585 2393 2343 2337 2406 2460 2604 2599 2544 2437 2347 2264 2226 2161 2129 2067 2093 2179 2132 2064 2034 1980 1991 1969 1955 1948 1901 1841 1771 1727 1657 1630 1603 1543 1528 1541 1594 1664 1746 1957 2104 2227 2225 2060 2152 2364 2613 2697 2715 2717 2557 2453 2240 2206 2106 1983 1856 1721 1688 1642 1416 1428 1381 1359 1352 1367 1351 1236 1329 1362 1367 1376 1472 1547 1597 1732 1887 1849 1777 1725 1722 1724 1695 1651 1596 1509 1404 1225 1077 956 869 879 844 763 721 746 751 680 623 578 563 534 490 442 439 438 433 441 427 384 365 305 266 270 338 364 355 391 428 499 555 591 675 831 966 1057 1110 1172 1217 1323 1405 1457 1489 1570 1628 1700 1790 1841 1639 1378 1318 1369 1354 1255 1200 1216 1220 1197 1036 795 583 449 286 248 257 250 233 226 217 209 208 208 209 210 209 208 210 213 212 213 213 209 209 209 209 208 207 208 209 259 370 432 456 510 539 567 645 760 817 929 1060 1171 1198 1353 1450 1511 1517 1551 1523 1464 1382 1309 1257 1320 1368 1406 1427 1384 1235 1095 1034 928 829 778 771 645 724 832 921 938 830 779 910 997 1069 1146 1173 1191 1238 1338 1401 1336 1458 1504 1508 1486 1451 1352 1306 1400 1495 1498 1498 1454 1436 1335 1141 1208 1149 1010
2025 1882 1862 1919 1851 1789 1852 2063 2221 2416 2322 2367 2417 2478 2586 2816 2841 2748 2801 2881 2675 2563 2520 2396 2191 2085 2025 2117 2172 2349 2205 2157 2114 2155 2204 2270 2494 2619 2601 2567 2540 2465 2389 2457 2530 2643 2428 2397 2452 2529 2526 2617 2632 2540 2458 2324 2225 2173 2181 2165 2164 2251 2182 2107 2072 2057 1985 1989 1950 1970 1897 1867 1814 1754 1705 1662 1621 1587 1537 1561 1593 1644 1716 1814 1942 2064 2139 2166 2144 2338 2659 2727 2751 2737 2542 2406 2345 2194 2157 2120 1977 1865 1764 1723 1531 1456 1407 1366 1405 1413 1357 1385 1329 1402 1443 1444 1419 1502 1611 1680 1780 1870 1828 1798 1785 1823 1798 1756 1688 1564 1426 1318 1192 1034 941 980 980 889 770 699 689 706 682 624 577 548 535 509 476 437 388 400 397 368 347 323 299 265 263 327 302 369 391 484 540 595 630 710 859 992 1109 1191 1238 1272 1364 1460 1513 1535 1621 1687 1748 1843 1729 1493 1319 1187 1311 1325 1203 1178 1195 1212 1170 908 713 403 260 229 235 237 227 225 218 211 208 208 208 209 210 209 208 212 212 213 213 212 208 210 209 208 206 208 212 215 307 406 484 534 563 585 633 700 826 912 982 1107 1228 1304 1371 1462 1508 1512 1523 1524 1484 1405 1290 1221 1296 1343 1373 1414 1338 1219 1073 937 875 792 650 685 644 752 862 955 996 908 815 900 991 1073 1171 1282 1315 1316 1400 1457 1442 1489 1511 1521 1517 1466 1435 1411 1469 1531 1530 1524 1477 1427 1303 1180 1281 1210 1104
2098 2033 1974 1906 1812 1820 1906 2043 2258 2511 2580 2552 2505 2578 2738 2941 2920 2908 2869 2881 2713 2511 2420 2328 2113 2052 2082 2207 2335 2399 2289 2226 2170 2219 2269 2346 2478 2688 2662 2639 2589 2495 2481 2524 2608 2563 2463 2469 2579 2531 2566 2508 2478 2486 2413 2339 2275 2234 2240 2296 2261 2178 2133 2086 2060 2040 2010 1965 1948 1925 1875 1837 1795 1738 1693 1652 1614 1585 1551 1597 1626 1673 1763 1851 1982 2122 2208 2273 2249 2419 2593 2753 2842 2755 2437 2449 2482 2281 2260 2381 2122 1980 1830 1644 1472 1473 1369 1373 1387 1438 1441 1443 1519 1587 1520 1533 1479 1516 1602 1706 1819 1846 1844 1874 1881 1890 1855 1778 1665 1519 1378 1256 1128 1003 994 1073 1024 944 785 692 651 664 650 624 574 549 534 519 493 463 442 358 431 413 382 350 296 264 262 292 364 400 455 530 577 633 696 783 919 1038 1133 1259 1292 1328 1398 1481 1532 1581 1633 1714 1776 1798 1718 1418 1161 1119 1193 1248 1164 1152 1179 1185 1110 771 440 298 221 215 218 219 217 214 209 208 209 208 209 209 210 210 209 212 212 212 211 210 212 210 208 206 207 208 216 265 325 436 508 541 607 674 726 841 940 1039 1126 1193 1276 1373 1418 1465 1485 1513 1526 1524 1504 1414 1286 1186 1209 1258 1343 1376 1334 1194 1042 889 806 713 640 746 766 858 913 1012 1069 982 877 859 980 1036 1158 1261 1368 1456 1506 1547 1494 1509 1536 1571 1578 1548 1529 1515 1561 1590 1560 1537 1512 1353 1229 1293 1367 1298 1197
2232 2124 1996 1885 1905 1904 1972 2138 2270 2479 2708 2713 2691 2810 2931 2785 2723 2696 2678 2630 2582 2447 2307 2177 2067 2047 2141 2280 2509 2444 2373 2298 2310 2289 2367 2464 2520 2698 2730 2750 2687 2550 2577 2637 2522 2501 2518 2531 2509 2450 2478 2433 2389 2367 2367 2385 2345 2408 2413 2320 2227 2148 2101 2088 2052 2013 1986 1943 1913 1878 1856 1832 1787 1713 1674 1641 1613 1583 1588 1608 1656 1701 1781 1897 2024 2172 2288 2434 2508 2501 2624 2757 2868 2664 2508 2693 2727 2627 2438 2161 2107 1928 1776 1559 1483 1480 1339 1366 1389 1452 1485 1573 1737 1656 1633 1627 1571 1542 1614 1719 1863 1900 1919 1973 1962 1923 1821 1693 1605 1476 1321 1168 1088 1114 1120 1151 1067 973 845 674 595 576 619 603 571 536 490 482 499 467 424 375 375 387 376 330 292 260 265 313 379 434 508 568 628 710 816 859 999 1117 1199 1284 1333 1377 1456 1531 1560 1581 1653 1740 1767 1645 1576 1395 1197 1048 1151 1133 1108 1125 1139 1122 1051 730 419 248 206 207 208 209 209 209 209 209 209 208 212 212 211 210 210 211 212 210 211 213 210 207 206 207 207 212 245 305 400 460 520 595 672 747 834 1006 1084 1120 1227 1310 1344 1414 1451 1424 1452 1475 1486 1498 1507 1402 1291 1208 1133 1218 1287 1305 1253 1156 1073 885 754 664 702 836 874 973 1041 1104 1132 1030 948 893 955 1040 1119 1238 1355 1458 1520 1548 1549 1521 1555 1558 1623 1622 1592 1590 1617 1642 1603 1572 1512 1383 1323 1418 1418 1319 1209
2285 2133 1949 1879 1927 1929 2056 2182 2301 2442 2595 2722 2804 2964 2821 2747 2670 2658 2638 2572 2511 2421 2247 2138 2079 2062 2170 2327 2561 2504 2447 2370 2381 2366 2437 2529 2564 2736 2672 2615 2587 2613 2679 2601 2493 2415 2435 2471 2441 2380 2403 2380 2281 2277 2260 2270 2274 2263 2297 2319 2255 2158 2087 2078 2040 2010 1983 1933 1894 1847 1820 1813 1756 1697 1670 1634 1644 1597 1606 1621 1673 1723 1794 1884 2007 2124 2243 2429 2313 2368 2521 2659 2841 2592 2637 2733 2851 2661 2450 2146 1982 1857 1705 1582 1511 1456 1398 1546 1626 1633 1632 1697 1778 1728 1720 1709 1727 1640 1665 1758 1896 1958 1992 2058 1995 1942 1805 1681 1571 1395 1259 1183 1188 1253 1258 1190 1091 1015 874 691 714 606 533 549 571 476 425 418 452 482 451 418 340 316 327 315 290 259 269 318 392 465 556 650 716 809 903 934 1084 1196 1273 1353 1376 1412 1478 1555 1609 1632 1572 1724 1767 1541 1468 1263 1158 1015 1071 1090 969 1096 1111 964 925 560 331 209 204 205 207 208 208 207 209 210 209 212 213 213 212 212 212 210 210 211 212 210 208 209 208 208 209 229 299 348 406 478 552 645 752 833 899 1066 1182 1208 1295 1377 1420 1462 1483 1451 1420 1426 1433 1456 1482 1391 1271 1189 1117 1181 1219 1187 1145 1082 1042 896 746 631 722 820 895 1002 1086 1146 1187 1085 1015 977 926 1018 1094 1225 1351 1438 1480 1536 1574 1555 1560 1583 1655 1686 1653 1640 1652 1673 1636 1571 1511 1432 1363 1512 1500 1421 1309
2274 2140 1999 1908 1924 1953 2081 2232 2336 2424 2497 2577 2698 2887 2835 2802 2771 2716 2656 2574 2500 2419 2278 2178 2175 2161 2216 2323 2560 2646 2578 2464 2482 2457 2628 2606 2700 2638 2564 2487 2442 2496 2545 2606 2522 2399 2390 2390 2389 2371 2395 2368 2250 2188 2117 2123 2111 2098 2111 2170 2150 2142 2120 2076 2001 1973 1978 1938 1898 1825 1801 1784 1731 1689 1659 1652 1656 1631 1617 1646 1681 1721 1748 1826 1914 2021 2059 2140 2226 2299 2543 2657 2705 2721 2830 2880 2776 2550 2491 2169 2020 1865 1701 1581 1530 1558 1609 1639 1673 1704 1713 1741 1813 1816 1801 1818 1860 1709 1724 1782 1940 2011 2060 2135 2052 1998 1847 1670 1458 1322 1295 1301 1370 1373 1329 1244 1151 1107 942 841 813 681 595 509 481 406 402 382 370 412 384 352 334 326 286 304 269 266 287 326 403 522 650 741 830 871 960 991 1151 1286 1196 1324 1421 1461 1536 1619 1649 1639 1441 1567 1724 1566 1375 1241 1150 1059 987 1005 859 1066 921 895 724 458 219 204 205 205 205 206 207 207 209 209 210 212 212 213 214 213 212 213 212 211 209 213 216 215 213 214 292 336 356 401 427 488 602 703 842 936 1043 1159 1226 1270 1341 1442 1479 1498 1499 1470 1412 1346 1346 1350 1389 1344 1234 1158 1072 1181 1141 1041 1025 971 948 858 704 628 732 820 908 1014 1104 1170 1219 1188 1102 1056 996 985 1063 1154 1262 1340 1452 1533 1559 1576 1605 1609 1683 1718 1678 1685 1703 1699 1616 1534 1453 1450 1474 1526 1575 1507 1299
2269 2162 2088 1950 1974 2016 2056 2237 2320 2430 2552 2561 2680 2884 2917 2820 2743 2688 2623 2538 2491 2346 2294 2332 2381 2348 2259 2347 2587 2723 2566 2521 2504 2570 2732 2694 2782 2658 2613 2526 2462 2442 2448 2475 2505 2477 2442 2392 2395 2398 2306 2295 2278 2201 2135 2018 1959 1932 1936 1992 2009 1990 1990 1964 1931 1929 1954 1931 1871 1816 1785 1767 1708 1682 1658 1650 1631 1612 1630 1676 1713 1765 1819 1850 1868 1913 1963 2092 2165 2264 2344 2418 2467 2591 2693 2727 2632 2545 2244 2115 1973 1849 1663 1562 1572 1585 1646 1681 1723 1755 1756 1791 1839 1935 1931 1943 1887 1777 1768 1799 1854 2089 2157 2155 2016 1968 1849 1506 1385 1433 1441 1437 1494 1447 1384 1312 1227 1170 1016 936 859 724 604 569 499 495 474 454 374 333 336 358 381 368 381 369 298 260 289 342 429 544 726 855 906 968 1026 1075 1174 1280 1040 1203 1388 1425 1478 1544 1538 1610 1439 1360 1543 1488 1396 1378 1254 1166 1016 850 832 953 895 767 409 260 213 204 204 204 205 206 207 208 208 210 211 213 213 210 207 207 210 210 208 213 212 216 220 225 241 335 386 399 434 447 485 577 656 778 914 1052 1127 1210 1269 1314 1395 1461 1492 1505 1514 1509 1453 1386 1273 1228 1226 1246 1178 1057 1089 1155 1127 1019 897 879 848 784 651 635 751 848 938 1019 1115 1183 1238 1275 1213 1121 1069 999 1081 1139 1195 1332 1438 1503 1501 1538 1585 1631 1669 1729 1720 1711 1716 1702 1574 1497 1527 1542 1568 1590 1629 1525 1311
2322 2220 2167 2003 2032 2085 2133 2264 2359 2488 2582 2649 2723 2973 2814 2716 2627 2584 2574 2513 2473 2407 2393 2506 2581 2460 2351 2387 2621 2668 2550 2524 2570 2630 2806 2803 2826 2707 2616 2523 2446 2362 2347 2352 2389 2455 2538 2481 2500 2433 2306 2255 2259 2163 2107 1940 1856 1822 1824 1863 1840 1866 1853 1841 1833 1869 1886 1887 1857 1786 1776 1738 1697 1676 1657 1643 1637 1621 1654 1701 1755 1774 1824 1902 1926 1924 2076 2286 2354 2326 2382 2435 2462 2525 2608 2558 2449 2401 2184 2116 2004 1889 1663 1562 1584 1606 1681 1711 1747 1770 1789 1834 1863 1996 2051 1989 1921 1845 1813 1877 1922 2029 2203 2060 2032 1962 1661 1480 1437 1486 1543 1531 1555 1504 1427 1347 1249 1148 1043 969 879 766 637 586 564 539 521 480 445 384 377 397 428 407 401 352 280 260 303 339 499 597 748 874 969 1006 1087 1015 1066 1182 937 1068 1340 1364 1390 1394 1372 1376 1275 1277 1336 1395 1418 1388 1314 1116 1025 984 594 891 537 295 284 220 209 203 203 203 205 205 206 207 207 210 215 213 210 211 213 216 219 217 216 214 217 241 307 340 365 400 417 432 462 500 575 655 729 850 987 1092 1204 1268 1292 1335 1396 1450 1501 1510 1510 1519 1488 1421 1325 1216 1127 1119 1105 1032 1024 1111 1084 1002 916 796 735 709 619 650 726 801 901 1000 1101 1174 1264 1328 1275 1188 1118 1060 1045 1133 1168 1289 1407 1455 1407 1488 1575 1683 1706 1732 1748 1742 1747 1683 1556 1555 1575 1612 1660 1659 1636 1514 1322
2360 2293 2245 2177 2141 2150 2201 2292 2422 2524 2564 2639 2746 2999 2937 2788 2656 2593 2572 2543 2551 2558 2528 2567 2706 2600 2505 2481 2751 2669 2592 2587 2628 2708 2841 2761 2726 2756 2645 2516 2342 2227 2169 2193 2260 2465 2589 2551 2537 2462 2367 2212 2181 2162 2085 1973 1820 1770 1770 1769 1718 1707 1719 1749 1750 1770 1792 1842 1798 1767 1732 1704 1666 1660 1647 1642 1669 1659 1674 1738 1785 1831 1829 1856 1943 1986 2051 2153 2276 2350 2515 2531 2529 2556 2587 2460 2356 2293 2218 2152 2099 1991 1746 1607 1611 1660 1711 1737 1774 1811 1841 1836 1859 1936 2077 2104 2025 1937 1892 1942 2049 2079 2146 2139 1977 1813 1729 1634 1592 1581 1625 1612 1619 1558 1491 1350 1223 1094 969 917 842 733 653 618 583 553 537 518 479 451 442 369 371 342 339 269 261 258 260 390 574 687 799 956 1038 1009 1122 1040 1043 1062 818 965 1195 1021 1037 1095 1044 1049 1071 1165 1312 1416 1457 1374 1169 1044 1022 914 573 692 314 216 206 206 205 203 202 203 204 205 205 207 207 209 210 221 370 452 474 397 438 470 486 476 384 415 466 406 419 467 476 487 528 582 648 750 843 938 1060 1190 1257 1290 1321 1346 1406 1442 1480 1478 1529 1539 1539 1457 1370 1285 1192 1083 1010 1004 934 1053 1025 934 845 785 706 614 681 772 815 890 896 944 1037 1153 1248 1377 1340 1281 1196 1126 1058 1138 1165 1231 1314 1307 1385 1516 1615 1731 1743 1765 1773 1760 1758 1666 1576 1621 1637 1695 1718 1689 1611 1475 1321
2356 2332 2327 2272 2250 2266 2240 2336 2503 2563 2629 2715 2863 3096 3092 3004 2780 2681 2656 2695 2701 2795 2701 2792 2892 2770 2666 2592 2843 2773 2702 2673 2799 2798 2731 2676 2585 2576 2517 2443 2357 2188 2082 2137 2269 2500 2650 2620 2526 2444 2385 2283 2156 2110 2052 1975 1907 1818 1805 1757 1673 1647 1644 1668 1679 1687 1699 1726 1733 1746 1741 1681 1642 1643 1656 1688 1687 1682 1695 1766 1816 1868 1950 1920 1933 1956 1975 2068 2160 2270 2467 2613 2685 2752 2594 2488 2397 2328 2290 2211 2176 1998 1811 1697 1597 1683 1733 1756 1791 1828 1835 1850 1871 1941 2089 2259 2138 2048 2004 1999 2234 2296 2274 2165 1921 1850 1803 1720 1687 1688 1725 1710 1685 1570 1394 1238 1132 999 919 848 765 705 656 620 584 557 538 508 461 442 416 342 289 274 268 281 352 334 259 378 659 530 576 823 1004 807 1064 820 762 826 685 876 964 807 804 866 919 966 1035 1169 1352 1434 1427 1286 1107 1017 987 885 539 389 217 208 204 204 204 204 203 203 204 204 205 206 208 209 248 474 620 700 695 643 421 591 670 665 598 543 513 414 489 505 547 597 654 695 765 874 920 1027 1153 1261 1304 1323 1358 1364 1363 1387 1420 1437 1505 1540 1532 1502 1433 1315 1224 1131 1000 907 949 1000 967 916 807 673 626 693 721 756 880 989 1052 1075 1077 1123 1251 1367 1424 1358 1248 1170 1105 1097 1145 1201 1228 1298 1409 1562 1667 1770 1785 1785 1801 1793 1772 1672 1603 1666 1679 1717 1730 1681 1592 1466 1321
2438 2424 2377 2358 2327 2343 2289 2388 2555 2691 2720 2787 2898 3137 3225 3136 3029 2929 2876 2854 2830 2759 2751 2752 2717 2656 2559 2553 2679 2819 2778 2747 2843 2734 2632 2611 2511 2458 2406 2357 2278 2209 2044 2160 2318 2486 2690 2586 2544 2461 2357 2312 2183 2048 2002 1932 1872 1856 1872 1764 1705 1665 1636 1628 1631 1644 1627 1641 1676 1718 1703 1654 1661 1672 1679 1698 1717 1707 1712 1800 1828 1874 1989 2075 1995 1978 2008 2065 2113 2226 2401 2579 2652 2823 2740 2684 2688 2594 2401 2211 2099 1966 1824 1717 1609 1692 1750 1780 1802 1849 1896 1855 1899 1962 2043 2230 2272 2161 2114 2111 2260 2236 2151 2054 1946 1910 1872 1793 1755 1772 1818 1770 1734 1497 1269 1136 1075 1057 1041 941 852 754 672 607 577 553 529 497 424 381 353 290 305 337 333 347 387 385 297 328 435 388 464 559 593 685 790 604 525 617 654 748 832 731 762 835 884 950 1105 1223 1361 1248 1159 1209 1058 1012 875 814 417 250 223 211 203 204 204 204 204 203 203 204 205 208 209 210 366 620 839 895 893 693 607 546 702 705 631 575 508 510 541 584 651 710 751 805 930 988 1033 1115 1231 1297 1334 1368 1398 1359 1276 1312 1350 1408 1459 1488 1506 1447 1448 1322 1228 1137 1003 886 870 913 924 887 761 619 691 779 828 815 864 999 1089 1148 1203 1221 1227 1342 1424 1406 1286 1200 1164 1196 1168 1161 1226 1284 1409 1571 1694 1809 1819 1806 1804 1811 1782 1687 1632 1676 1725 1759 1746 1679 1578 1454 1309
2470 2421 2462 2495 2440 2437 2402 2628 2577 2863 2892 3027 3104 3089 3104 3104 2999 2943 2897 2878 2829 2737 2726 2648 2602 2565 2528 2483 2532 2660 2816 2918 2883 2693 2597 2523 2433 2365 2281 2239 2171 2123 2042 2236 2413 2523 2583 2518 2426 2354 2327 2300 2242 2073 1932 1930 1928 1974 1992 1856 1788 1713 1664 1637 1628 1622 1581 1578 1612 1631 1628 1629 1666 1716 1734 1763 1762 1742 1744 1765 1785 1833 1893 2031 2057 2099 2084 2076 2123 2238 2342 2544 2505 2767 2711 2681 2597 2461 2347 2223 2148 2059 1911 1771 1644 1676 1735 1795 1829 1873 1932 1893 1972 2054 2065 2182 2367 2389 2307 2315 2270 2191 2152 2053 1978 1952 1928 1855 1803 1881 1888 1775 1607 1404 1323 1330 1216 1173 1119 1011 872 763 678 632 595 565 529 447 400 356 299 373 376 410 367 357 416 416 432 258 264 285 299 372 381 522 475 401 383 384 486 653 712 611 805 866 921 1055 1169 1233 1283 1137 969 980 991 968 808 547 246 223 215 207 203 204 205 204 204 205 204 204 207 210 210 301 586 800 936 1034 976 848 756 669 693 727 664 566 497 558 609 671 752 801 852 986 1074 1139 1178 1200 1292 1342 1374 1414 1418 1388 1301 1205 1238 1344 1351 1388 1398 1369 1388 1321 1227 1126 1017 912 858 811 870 869 776 652 668 790 888 909 924 966 1055 1181 1262 1326 1365 1310 1400 1411 1329 1236 1246 1304 1288 1268 1205 1262 1376 1547 1673 1755 1839 1837 1830 1810 1771 1739 1672 1704 1753 1793 1741 1636 1532 1424 1287
2512 2549 2567 2539 2520 2509 2500 2649 2767 2768 3078 3123 2980 2943 3003 2998 2970 2923 2893 2866 2839 2792 2774 2709 2588 2616 2629 2594 2488 2566 2642 2838 2794 2671 2542 2425 2369 2301 2227 2141 2057 1974 2077 2202 2303 2397 2471 2448 2417 2395 2349 2296 2182 2137 2056 1985 2004 2111 2103 1988 1906 1871 1749 1710 1679 1657 1582 1545 1554 1589 1591 1651 1716 1765 1767 1779 1788 1793 1782 1776 1766 1806 1886 1956 2000 2044 2061 2090 2163 2242 2365 2373 2425 2640 2790 2757 2660 2580 2501 2288 2242 2153 1992 1917 1794 1749 1716 1792 1838 1886 1907 1887 2018 2182 2215 2181 2321 2468 2416 2341 2275 2196 2140 2067 2019 1984 1958 1920 1885 2019 1924 1773 1552 1441 1465 1411 1292 1227 1135 1026 889 761 729 675 608 574 498 437 412 344 334 384 432 435 414 408 462 509 552 454 422 326 259 265 274 251 302 295 290 280 271 311 431 683 826 915 978 1096 1156 1052 1153 1063 961 822 972 894 766 361 210 209 206 203 203 205 206 206 206 206 206 208 209 211 304 479 742 923 1046 1069 1051 954 913 871 790 708 584 600 592 610 657 765 862 915 1013 1092 1177 1260 1313 1340 1366 1364 1418 1433 1417 1354 1294 1216 1167 1257 1262 1265 1282 1270 1324 1289 1205 1117 1031 949 871 737 802 777 713 599 689 802 910 942 990 1041 1078 1180 1274 1359 1426 1377 1405 1441 1384 1303 1366 1430 1422 1377 1293 1256 1364 1494 1573 1653 1775 1848 1858 1838 1816 1749 1715 1741 1793 1805 1716 1595 1454 1354 1282
2670 2624 2568 2578 2544 2527 2556 2619 2753 2895 3000 3076 3003 2927 2878 2891 2862 2842 2813 2849 2896 2849 2874 2796 2683 2654 2584 2498 2392 2402 2521 2743 2722 2671 2620 2453 2335 2248 2149 2082 1937 1884 2042 2163 2258 2356 2460 2515 2483 2458 2413 2324 2235 2174 2105 2082 2130 2238 2180 2121 2040 1924 1795 1747 1716 1713 1608 1536 1522 1560 1597 1699 1751 1770 1791 1799 1827 1850 1842 1805 1788 1809 1916 1940 1979 2003 2027 2046 2111 2160 2268 2346 2432 2543 2861 2882 2755 2661 2532 2298 2263 2175 2049 1984 1874 1773 1782 1818 1854 1872 1872 1906 2031 2310 2382 2235 2267 2353 2394 2334 2290 2190 2131 2078 2038 1998 2001 2044 1993 2063 1859 1691 1587 1601 1534 1390 1278 1213 1084 981 889 811 754 705 625 521 521 410 398 321 380 423 462 439 464 471 495 584 662 604 479 370 318 251 239 236 239 239 238 239 237 238 282 593 768 849 940 1025 1048 943 1013 963 908 772 827 850 551 240 203 203 203 202 204 206 207 208 208 208 208 209 208 258 404 673 888 989 1058 1076 1045 984 949 935 809 690 629 640 656 706 658 769 927 1024 1108 1200 1242 1341 1411 1386 1369 1390 1409 1413 1407 1325 1247 1218 1114 1166 1187 1169 1197 1206 1251 1231 1124 1080 1019 953 856 730 699 731 651 617 707 806 896 928 974 1064 1120 1168 1231 1310 1401 1422 1399 1467 1452 1389 1427 1514 1504 1451 1362 1275 1328 1428 1522 1641 1777 1867 1876 1854 1848 1766 1743 1786 1833 1800 1698 1613 1491 1389 1356
2628 2597 2598 2588 2557 2563 2650 2709 2773 2882 3062 3187 3058 2954 2865 2788 2731 2715 2694 2703 2751 2757 2749 2753 2728 2672 2571 2449 2305 2316 2402 2632 2607 2583 2540 2532 2301 2185 2115 2007 1826 1846 2036 2174 2249 2345 2455 2526 2561 2499 2408 2310 2273 2316 2252 2264 2187 2145 2120 2058 2022 1896 1822 1755 1730 1705 1630 1546 1506 1528 1626 1746 1792 1836 1885 1866 1860 1882 1952 1910 1833 1816 1873 1904 1925 1943 1993 2039 2115 2149 2313 2482 2506 2541 2678 2871 2713 2478 2362 2280 2285 2207 2084 2051 1927 1808 1795 1830 1866 1872 1890 1909 2082 2427 2584 2459 2497 2408 2448 2472 2281 2183 2105 2038 2056 2040 2125 2205 2139 1967 1818 1735 1775 1695 1548 1386 1208 1119 1061 1029 1011 918 806 725 624 605 515 417 349 380 402 450 486 481 509 522 561 687 796 800 606 421 329 311 263 239 238 237 236 232 230 230 231 307 586 764 840 881 931 810 892 885 890 888 628 757 227 204 202 203 203 203 204 207 210 209 208 207 209 236 275 430 557 839 983 1061 1061 1059 1030 977 951 909 771 642 685 718 713 775 841 789 939 1061 1197 1301 1363 1420 1462 1405 1374 1379 1369 1334 1337 1326 1263 1141 1104 1101 1099 1076 1094 1156 1166 1125 1047 998 970 936 864 792 709 630 596 613 654 759 825 874 956 1036 1113 1147 1208 1288 1395 1423 1432 1473 1508 1483 1551 1595 1600 1509 1404 1314 1386 1496 1539 1640 1760 1856 1903 1871 1842 1780 1789 1827 1880 1861 1802 1654 1527 1529 1419
2657 2634 2630 2621 2662 2710 2768 2795 2857 2954 3095 3124 3054 3019 2873 2841 2800 2765 2727 2614 2612 2619 2654 2671 2631 2586 2559 2483 2365 2261 2346 2588 2510 2460 2424 2515 2362 2133 2000 1902 1752 1775 1944 2094 2189 2300 2373 2440 2549 2391 2325 2232 2109 2130 2159 2213 2148 2110 2063 1990 1930 1885 1823 1757 1721 1695 1620 1557 1500 1512 1611 1723 1822 1904 1977 1981 1928 1926 2022 2019 1888 1854 1884 1920 1963 1976 1975 2069 2117 2152 2198 2274 2347 2388 2514 2676 2852 2548 2332 2299 2294 2241 2109 2080 2011 1832 1811 1837 1855 1872 1858 1933 2163 2341 2493 2635 2587 2571 2517 2350 2237 2182 2067 2085 2149 2148 2338 2267 2157 1998 1851 1800 1876 1717 1612 1452 1295 1265 1213 1131 1071 945 839 695 725 619 530 456 378 396 469 483 510 497 542 559 626 752 864 925 728 559 344 361 324 295 239 236 234 232 231 230 230 229 275 665 787 844 861 655 867 881 862 767 733 483 208 204 204 203 204 204 205 210 209 209 217 447 343 304 443 548 554 865 1001 1039 1044 1043 1008 954 918 844 714 693 757 806 849 893 918 947 901 1067 1235 1340 1408 1464 1451 1413 1384 1356 1331 1288 1278 1287 1246 1162 1066 1049 1032 1021 1047 1079 1108 1029 965 940 918 899 842 829 728 595 629 703 641 676 761 840 930 1027 1092 1142 1207 1280 1367 1417 1464 1473 1544 1547 1607 1679 1659 1554 1444 1344 1411 1540 1642 1675 1825 1916 1934 1884 1850 1815 1839 1855 1891 1929 1833 1697 1705 1645 1511
2675 2667 2656 2696 2738 2793 2843 2885 3049 3153 2966 3015 3051 2975 2927 2889 2801 2742 2691 2623 2616 2617 2612 2585 2569 2487 2470 2433 2325 2251 2366 2475 2440 2384 2333 2347 2378 2145 1975 1824 1718 1794 1956 2115 2201 2279 2312 2368 2493 2339 2194 2126 2058 2057 2088 2059 2102 2132 2017 1977 1933 1877 1822 1778 1730 1684 1612 1536 1494 1518 1604 1718 1805 1895 1993 2033 1990 1997 2047 2045 2001 1942 1944 1992 2019 2027 2038 2073 2102 2137 2170 2179 2264 2387 2454 2607 2775 2553 2336 2318 2296 2279 2147 2093 2043 1885 1816 1836 1859 1861 1852 1944 2258 2355 2521 2578 2528 2456 2470 2304 2212 2120 2127 2206 2198 2247 2335 2164 2072 1985 1883 1893 1923 1771 1669 1566 1476 1401 1290 1168 1078 952 779 827 803 692 569 458 393 388 468 498 538 513 552 587 687 769 907 974 782 630 412 411 387 345 314 237 233 231 229 230 229 229 228 423 657 798 829 553 813 554 471 554 588 481 218 206 204 204 204 205 208 208 206 275 569 621 551 511 530 548 625 802 984 1057 1050 1050 1012 944 865 785 766 728 795 904 934 943 973 1035 1048 1049 1237 1352 1400 1496 1438 1399 1383 1272 1253 1215 1181 1213 1225 1173 1088 968 987 971 996 1069 1055 972 905 907 873 840 795 740 634 608 712 812 763 661 714 811 938 1047 1099 1139 1200 1266 1353 1421 1466 1513 1517 1579 1659 1702 1689 1574 1464 1379 1438 1573 1678 1771 1847 1931 1947 1900 1874 1851 1872 1902 1942 1966 1896 1831 1810 1721 1550
2769 2766 2766 2806 2837 2897 2933 3030 3184 3084 2946 2890 3062 3036 3027 2997 2815 2691 2603 2492 2523 2511 2575 2561 2526 2505 2458 2386 2237 2199 2280 2364 2364 2306 2230 2186 2221 2147 2026 1834 1691 1788 2003 2139 2316 2444 2384 2433 2436 2318 2148 2092 2084 2111 2048 1952 1953 2027 2058 1978 1918 1839 1814 1784 1721 1668 1590 1501 1485 1507 1614 1721 1815 1891 1963 2056 2023 2026 2054 2038 1995 1966 1988 2025 2054 2068 2062 2102 2118 2142 2173 2202 2285 2442 2458 2594 2720 2469 2352 2330 2315 2299 2234 2166 2148 1904 1847 1910 1921 1859 1867 2009 2232 2531 2670 2510 2433 2411 2322 2240 2206 2202 2210 2335 2293 2349 2239 2114 2054 2010 1945 2016 1966 1819 1732 1666 1563 1473 1347 1167 1055 879 940 957 904 790 633 544 449 431 404 470 521 538 566 608 723 807 958 1003 805 665 482 459 443 436 436 239 232 229 229 228 229 226 226 229 369 529 674 641 432 329 350 402 382 302 208 206 204 204 204 206 210 208 214 389 668 733 584 572 571 581 603 684 956 1051 1040 1044 1015 917 816 834 847 805 810 922 1064 1036 1076 1146 1175 1238 1256 1352 1396 1506 1419 1421 1385 1260 1180 1169 1115 1143 1200 1167 1110 984 894 894 944 1009 983 915 852 831 813 758 730 693 569 678 768 877 862 741 701 817 930 1027 1092 1129 1164 1215 1312 1436 1498 1560 1557 1592 1646 1692 1710 1634 1522 1455 1433 1548 1645 1770 1862 1928 1977 1934 1919 1888 1891 1923 2032 2079 2039 1983 1923 1769 1595
2886 2907 2881 2901 2928 2994 3010 3125 3039 2992 2937 2874 2900 2860 2943 3116 2930 2783 2604 2503 2438 2386 2396 2452 2411 2404 2401 2306 2186 2144 2236 2284 2289 2230 2142 2052 2011 2033 1961 1782 1695 1864 2063 2237 2330 2316 2371 2444 2430 2334 2243 2183 2154 2103 2006 1920 1897 1884 1931 1944 1875 1821 1812 1781 1704 1648 1537 1485 1482 1524 1655 1743 1827 1928 2001 2080 2098 2069 2050 2040 2030 2001 2005 2030 2078 2079 2100 2123 2130 2156 2193 2226 2287 2467 2497 2631 2603 2400 2319 2344 2326 2315 2329 2242 2188 1956 1949 1985 1975 1939 1925 2023 2165 2424 2632 2491 2470 2413 2317 2235 2228 2224 2315 2435 2310 2263 2204 2134 2065 2004 2017 2042 1933 1837 1725 1549 1415 1322 1269 1134 1012 979 1065 1022 931 833 730 579 491 412 436 481 522 562 573 617 734 848 983 1035 841 701 547 507 496 488 507 351 234 229 228 227 226 224 220 222 220 226 275 283 278 238 242 220 222 208 208 206 204 203 204 205 210 208 225 414 628 693 636 600 605 613 633 700 935 1043 1041 1066 994 879 874 886 928 903 843 919 1119 1163 1147 1219 1297 1339 1334 1352 1391 1483 1419 1397 1377 1266 1135 1039 1042 1062 1131 1161 1118 1037 912 819 854 916 903 869 794 728 721 698 629 583 575 715 843 942 951 816 709 772 900 952 1001 1060 1119 1208 1351 1457 1541 1591 1587 1624 1650 1691 1732 1710 1627 1562 1444 1542 1657 1758 1847 1914 1987 1967 1957 1930 1929 1942 1985 2081 2083 1964 1828 1735 1570
3060 3078 3079 2995 3048 3075 3099 3026 2924 2858 2830 2778 2784 2806 2866 2923 2988 2911 2725 2606 2548 2512 2397 2378 2357 2320 2279 2216 2130 2111 2155 2198 2225 2173 2104 2033 1923 1860 1835 1742 1684 1863 1981 2187 2213 2275 2344 2410 2425 2336 2263 2221 2195 2131 2029 1915 1831 1822 1842 1851 1822 1807 1800 1769 1696 1633 1508 1471 1475 1525 1656 1739 1835 1955 2018 2039 2037 2043 2028 2023 2049 2035 2010 2034 2077 2081 2123 2160 2163 2165 2207 2230 2251 2315 2455 2618 2553 2393 2344 2337 2338 2346 2359 2323 2175 1969 2006 2005 2001 1997 1985 2044 2157 2340 2622 2539 2471 2458 2380 2312 2233 2280 2336 2425 2269 2216 2195 2149 2110 2042 1935 1906 1843 1782 1667 1408 1273 1172 1083 1012 986 1119 1104 1061 966 861 754 628 497 417 485 499 536 570 587 644 746 878 1004 1037 880 737 625 566 539 522 555 448 228 228 226 225 225 224 222 219 220 219 218 219 231 217 211 232 209 210 209 208 205 203 204 205 209 205 225 384 646 607 739 732 758 806 831 859 938 1064 1078 1050 944 913 915 930 981 971 952 890 1105 1217 1229 1239 1303 1346 1290 1305 1340 1463 1435 1376 1323 1243 1097 979 934 960 1055 1118 1090 1036 929 821 765 796 825 802 765 624 580 571 597 594 723 805 881 989 989 871 724 771 828 895 925 977 1091 1172 1320 1473 1565 1627 1631 1677 1736 1724 1770 1784 1706 1615 1487 1528 1626 1733 1819 1877 1977 2007 2009 1956 1970 1995 2058 2119 2026 1898 1764 1667 1610
3282 3342 3304 3252 3196 3307 3310 3100 2887 2808 2788 2773 2748 2723 2750 2764 2778 2894 2907 2775 2688 2546 2446 2478 2416 2340 2329 2250 2166 2112 2130 2089 2086 2080 2089 2030 1906 1688 1642 1628 1648 1771 2016 2076 2094 2180 2260 2340 2356 2355 2319 2379 2226 2139 2062 1921 1796 1790 1800 1788 1791 1776 1767 1738 1685 1611 1504 1458 1467 1536 1671 1763 1828 1941 1969 1993 1993 1983 2011 2004 2051 2066 2053 2058 2074 2090 2132 2131 2144 2180 2192 2232 2257 2286 2334 2442 2609 2451 2369 2368 2359 2342 2353 2321 2156 1982 2040 2033 2015 2008 2009 2035 2173 2450 2650 2491 2447 2400 2376 2329 2319 2274 2360 2452 2303 2234 2159 2065 2006 1897 1821 1748 1698 1621 1475 1352 1477 1485 1366 1276 1191 1221 1147 1093 969 840 737 659 527 446 472 511 551 583 620 687 814 928 1045 1101 932 843 699 650 602 596 622 495 261 226 225 224 223 222 221 220 218 218 217 216 214 213 213 215 211 209 209 207 204 203 204 207 210 205 246 427 736 673 722 817 869 961 998 1003 1022 1072 1049 987 978 949 971 982 985 1013 1024 1015 1024 1176 1232 1272 1235 1303 1276 1204 1271 1372 1424 1376 1267 1230 1116 986 846 886 974 1048 1022 981 935 876 747 663 703 707 685 608 640 620 646 703 757 869 972 1049 1049 933 810 808 880 903 908 1011 1121 1229 1367 1479 1602 1666 1691 1705 1788 1802 1821 1829 1742 1666 1543 1545 1553 1634 1752 1841 1942 1998 2043 1996 2002 2049 2210 2108 1977 1863 1801 1749 1696
3307 3378 3349 3372 3456 3492 3380 3021 2902 2829 2789 2780 2738 2707 2687 2656 2677 2743 2755 2719 2708 2613 2542 2469 2343 2280 2260 2260 2157 2113 2137 2134 2136 2163 2078 1987 1809 1615 1529 1495 1572 1699 1881 2022 2036 2094 2300 2305 2291 2263 2252 2353 2214 2161 2067 1936 1876 1827 1786 1771 1773 1749 1726 1704 1668 1593 1514 1451 1456 1560 1711 1819 1879 1916 1938 1970 1970 1988 1988 1991 2041 2082 2102 2093 2077 2099 2115 2087 2104 2135 2166 2233 2273 2292 2324 2356 2431 2458 2393 2400 2363 2350 2382 2331 2184 2002 2058 2056 2040 2019 2010 2042 2194 2434 2585 2573 2459 2418 2389 2449 2349 2308 2377 2533 2415 2273 2135 2073 2000 1907 1785 1709 1563 1510 1438 1565 1624 1565 1453 1372 1308 1249 1152 1028 885 774 719 626 547 454 478 529 560 602 664 742 847 987 1086 1180 1162 1038 838 727 671 659 685 558 292 228 225 223 222 221 220 220 220 217 216 215 213 212 212 211 209 209 209 208 205 204 205 207 209 207 262 455 783 737 681 768 848 973 1005 1014 986 943 938 1035 971 980 1017 1029 1017 1054 1089 1099 1047 1109 1189 1291 1266 1186 1217 1144 1182 1277 1326 1325 1226 1129 1095 977 837 781 904 958 936 913 891 863 818 701 581 554 545 567 636 712 761 795 881 927 1033 1105 1087 957 856 800 874 966 1000 1038 1158 1295 1432 1568 1628 1732 1755 1766 1823 1883 1893 1885 1798 1713 1591 1602 1688 1659 1691 1805 1873 1942 2015 2044 2021 2049 2179 2104 1989 1974 1891 1810 1658
3344 3348 3301 3304 3398 3456 3481 3092 2984 2914 2842 2802 2732 2700 2689 2649 2626 2623 2671 2668 2659 2689 2634 2507 2383 2361 2309 2231 2194 2187 2254 2257 2214 2150 2067 1974 1856 1715 1586 1483 1485 1616 1826 1920 2000 2153 2234 2230 2210 2174 2164 2269 2257 2115 2044 1957 1925 1879 1827 1787 1771 1742 1712 1680 1622 1558 1500 1449 1451 1572 1748 1897 1944 1971 1953 1950 1926 1961 1951 1998 2078 2099 2077 2081 2079 2059 2094 2071 2062 2113 2111 2197 2280 2304 2336 2377 2415 2443 2439 2410 2378 2364 2366 2301 2227 2032 2082 2115 2093 2033 2019 2050 2135 2247 2410 2495 2588 2493 2509 2442 2365 2319 2387 2527 2340 2218 2170 2080 2021 1905 1847 1784 1661 1572 1589 1734 1661 1562 1465 1372 1289 1208 1117 985 832 753 679 614 529 480 521 539 576 651 699 766 894 1040 1150 1225 1198 1077 1067 817 762 721 733 626 334 236 224 223 222 220 220 219 219 217 216 215 212 212 212 211 209 208 208 208 206 205 206 206 210 208 283 536 825 794 736 700 813 902 978 964 892 875 947 993 936 1001 1038 1054 1072 1071 1116 1127 1112 1070 1190 1292 1287 1199 1091 1100 1113 1192 1240 1277 1190 1027 988 938 796 713 828 891 856 851 826 762 761 692 539 574 676 710 753 796 856 889 999 1041 1100 1128 1073 954 869 801 888 1032 1086 1088 1160 1301 1438 1581 1684 1764 1762 1810 1860 1938 1958 1921 1811 1738 1647 1611 1720 1772 1735 1744 1826 1905 1984 2082 2087 2093 2225 2156 2105 2019 1881 1758 1612
3444 3324 3277 3268 3308 3329 3338 3318 3195 3155 3049 2933 2827 2733 2713 2675 2615 2578 2547 2554 2556 2576 2558 2538 2559 2513 2400 2304 2308 2277 2268 2234 2176 2123 2097 2014 1911 1780 1671 1487 1427 1540 1696 1896 2053 2240 2179 2142 2065 2006 2041 2154 2203 2209 2079 1966 1947 1873 1816 1785 1763 1737 1717 1690 1659 1573 1477 1424 1421 1570 1751 1889 1881 1895 1906 1882 1844 1872 1944 1986 2063 2071 2062 2050 1990 2057 2061 2048 2007 2013 1967 2052 2256 2334 2364 2410 2440 2470 2458 2449 2364 2354 2327 2284 2205 2052 2122 2251 2131 2070 2040 2044 2135 2438 2416 2563 2668 2565 2513 2476 2362 2284 2344 2499 2301 2224 2156 2119 2227 1945 2038 1855 1877 1894 1852 1785 1670 1568 1466 1358 1265 1156 1013 915 818 731 643 553 489 525 549 599 638 687 739 837 1001 1091 1187 1257 1239 1202 1288 1217 924 930 798 708 484 276 229 224 220 219 218 217 217 216 216 216 213 211 210 210 210 208 207 207 206 206 207 205 209 211 298 611 841 893 842 732 716 845 851 810 791 860 903 880 937 1014 1032 1073 1125 1118 1145 1170 1167 1102 1201 1284 1311 1263 1157 1040 1027 1082 1134 1174 1118 975 872 854 763 670 762 764 760 750 758 699 671 620 541 641 647 728 832 879 935 981 1065 1114 1137 1139 1071 959 913 836 911 1028 1112 1180 1218 1313 1461 1609 1699 1727 1720 1782 1868 1920 1976 1961 1900 1824 1808 1692 1672 1758 1841 1821 1825 1915 2000 2123 2236 2193 2224 2161 2087 2003 1879 1765 1648
3356 3299 3244 3227 3210 3202 3223 3318 3262 3254 3149 3040 2943 2829 2817 2757 2679 2644 2594 2541 2479 2462 2410 2385 2422 2430 2390 2372 2356 2348 2349 2325 2198 2143 2177 2172 1978 1805 1641 1443 1411 1481 1746 1944 2035 2234 2278 2202 2095 2002 1958 2018 2059 2128 2015 1921 1889 1847 1818 1771 1750 1713 1703 1688 1660 1577 1494 1418 1393 1512 1697 1740 1736 1744 1741 1732 1735 1842 1882 1953 1972 1999 1977 1957 1953 1973 1969 1919 1901 1871 1888 2021 2280 2351 2389 2421 2469 2503 2489 2461 2412 2414 2340 2268 2173 2100 2195 2305 2176 2105 2079 2077 2120 2365 2387 2441 2567 2451 2407 2470 2308 2200 2274 2450 2248 2195 2239 2359 2347 2156 2235 2148 2047 1956 1911 1783 1668 1558 1441 1343 1237 1109 951 853 775 695 635 550 524 517 582 647 701 733 832 975 1099 1113 1201 1269 1304 1277 1302 1308 1140 1005 798 711 571 358 280 247 219 218 217 217 217 216 216 216 214 211 209 209 209 208 207 206 206 208 206 210 209 233 304 477 788 905 885 811 744 714 723 741 767 820 848 917 977 1014 1035 1075 1123 1151 1162 1209 1197 1204 1177 1266 1343 1288 1225 1099 1015 1002 1025 1095 1081 927 822 750 714 605 696 642 646 650 690 592 590 545 584 723 785 747 778 891 942 1004 1089 1155 1190 1197 1102 1001 934 863 893 988 1106 1185 1264 1345 1484 1586 1616 1635 1621 1679 1777 1845 1931 2021 1982 1910 1868 1800 1755 1812 1836 1899 1902 1960 2005 2114 2296 2201 2093 2075 1976 1931 1903 1776 1642
3270 3281 3217 3186 3168 3135 3131 3183 3251 3148 3147 3062 2987 2921 2864 2769 2687 2577 2529 2493 2456 2427 2416 2430 2378 2344 2272 2228 2246 2264 2276 2237 2190 2176 2150 2083 1987 1836 1646 1471 1372 1471 1695 1879 2013 2139 2150 2212 2149 1969 1916 1912 1950 2050 1988 1856 1796 1824 1787 1737 1718 1690 1670 1653 1624 1570 1482 1389 1376 1458 1589 1622 1613 1580 1574 1580 1649 1740 1783 1841 1824 1859 1870 1876 1870 1842 1802 1808 1827 1853 1900 1995 2125 2257 2401 2435 2477 2522 2519 2484 2457 2453 2377 2340 2240 2151 2201 2341 2187 2141 2110 2101 2088 2183 2338 2345 2488 2411 2326 2329 2261 2134 2180 2420 2316 2249 2357 2404 2337 2249 2226 2082 1970 1833 1829 1758 1637 1568 1421 1305 1188 1056 927 827 739 655 626 603 547 526 611 661 735 802 932 1019 1119 1140 1198 1271 1322 1263 1307 1322 1242 977 773 681 569 494 351 248 219 216 216 216 216 215 215 214 214 212 211 209 209 208 206 207 207 207 209 213 222 287 316 449 685 823 897 842 786 725 773 790 828 831 878 949 1034 1067 1074 1057 1125 1158 1181 1217 1237 1238 1224 1253 1323 1270 1201 1093 1028 972 953 1016 1030 919 797 669 630 554 583 542 519 526 622 550 531 633 701 797 873 881 797 859 940 1028 1119 1174 1216 1226 1152 1031 973 916 868 981 1094 1166 1247 1332 1426 1467 1492 1538 1532 1590 1665 1791 1892 2023 2039 2007 1897 1905 1814 1853 1912 1905 1978 2019 2053 2092 2226 2153 2029 2024 1924 1836 1827 1779 1643
3060 3275 3201 3145 3128 3069 3038 3073 3172 3156 3063 3096 3129 2984 2884 2783 2696 2605 2520 2460 2456 2464 2438 2393 2350 2290 2245 2194 2160 2159 2170 2176 2130 2062 2004 1948 1893 1821 1644 1512 1360 1451 1648 1842 1985 1993 2004 2086 2115 2076 1976 1892 1856 1938 1920 1800 1734 1726 1714 1693 1653 1636 1627 1589 1501 1512 1442 1342 1366 1410 1473 1500 1481 1465 1457 1457 1504 1556 1628 1677 1689 1711 1730 1731 1712 1729 1734 1781 1836 1869 1927 1993 2132 2213 2349 2412 2459 2520 2559 2525 2489 2476 2428 2370 2299 2173 2228 2274 2207 2183 2143 2120 2108 2163 2337 2411 2433 2620 2363 2262 2204 2111 2169 2366 2283 2278 2278 2297 2199 2081 1920 1847 1766 1699 1676 1705 1610 1511 1387 1257 1143 1025 883 814 728 650 640 624 549 561 656 705 784 884 997 1086 1154 1183 1209 1274 1321 1307 1295 1328 1303 982 788 692 579 597 481 276 217 216 214 214 215 214 214 213 213 212 212 212 209 208 207 207 206 207 209 225 273 321 359 440 538 634 740 833 781 748 833 872 821 874 889 954 1038 1102 1092 1067 1096 1181 1207 1231 1250 1234 1229 1222 1274 1252 1173 1102 1033 971 883 917 959 902 776 683 555 571 630 626 652 598 565 667 654 751 809 889 945 959 914 879 913 1017 1121 1179 1254 1268 1185 1079 1042 1003 896 944 1036 1118 1201 1291 1309 1335 1385 1451 1442 1535 1655 1775 1891 1959 2027 2071 2029 1988 1879 1897 1951 1958 1985 2048 2177 2223 2179 2091 1973 1903 1909 1800 1730 1693 1638
2892 3042 3245 3120 3087 3045 2974 2987 3043 3029 2996 2974 2932 3064 3042 2817 2681 2629 2618 2582 2535 2463 2402 2374 2310 2271 2269 2251 2219 2136 2186 2155 2097 2003 1896 1826 1742 1664 1594 1498 1357 1457 1609 1775 1895 1856 1858 1911 2024 1987 1944 1896 1804 1829 1845 1715 1666 1657 1656 1648 1605 1569 1546 1495 1412 1414 1362 1269 1321 1362 1384 1403 1387 1383 1380 1375 1456 1490 1526 1568 1583 1581 1585 1658 1664 1686 1736 1827 1893 1942 1990 2081 2178 2247 2349 2407 2476 2525 2550 2529 2505 2453 2446 2410 2386 2291 2220 2234 2252 2202 2161 2097 2118 2212 2364 2585 2517 2651 2476 2221 2171 2098 2141 2331 2249 2189 2133 2127 2017 1925 1840 1727 1599 1562 1530 1512 1539 1449 1346 1204 1117 1013 873 789 726 666 652 582 537 595 666 750 871 961 1059 1119 1185 1197 1205 1267 1334 1341 1299 1305 1316 1018 834 745 629 734 496 336 232 214 214 213 213 213 213 213 212 211 212 213 209 208 207 207 206 209 256 295 260 369 389 427 487 580 716 782 812 813 819 806 878 933 926 955 997 1052 1082 1098 1129 1160 1218 1257 1254 1247 1231 1227 1272 1269 1230 1168 1067 994 925 846 876 855 757 665 570 548 680 745 751 722 711 772 798 828 893 976 1052 1086 1034 1002 993 988 1103 1178 1263 1298 1243 1149 1181 1082 975 912 975 1023 1123 1178 1229 1216 1264 1333 1495 1606 1691 1779 1808 1883 1979 2076 2118 2008 1963 1939 1982 2026 2058 2132 2220 2165 2076 2030 1962 1831 1802 1720 1640 1585 1559
2774 2951 3155 3130 3055 3004 2928 2914 2934 2935 2949 2913 2880 2886 2927 2976 2872 2822 2656 2558 2503 2421 2371 2364 2265 2317 2231 2155 2102 2096 2175 2133 2046 1948 1842 1756 1636 1570 1541 1436 1355 1422 1562 1709 1826 1729 1756 1828 1932 1883 1858 1892 1758 1732 1748 1669 1589 1603 1614 1588 1532 1496 1455 1408 1370 1336 1302 1262 1285 1298 1314 1319 1298 1362 1363 1400 1521 1509 1510 1538 1529 1531 1538 1552 1630 1687 1736 1864 1938 1995 2038 2169 2219 2290 2357 2405 2492 2522 2547 2539 2507 2477 2472 2416 2411 2339 2227 2313 2325 2212 2143 2115 2134 2218 2362 2584 2606 2597 2568 2234 2151 2058 2109 2323 2350 2264 2025 1950 1831 1767 1740 1639 1508 1415 1391 1374 1449 1384 1285 1181 1108 940 825 742 714 642 575 594 559 617 677 780 864 970 1052 1126 1186 1226 1199 1272 1364 1388 1278 1257 1271 1060 868 757 670 787 709 609 342 317 213 212 212 212 212 212 211 210 211 211 208 209 206 206 211 236 299 314 358 364 410 436 517 589 713 796 794 767 772 868 914 951 954 966 1002 1016 1071 1138 1159 1169 1224 1257 1240 1210 1230 1240 1266 1295 1257 1232 1101 1017 941 895 777 804 750 651 515 575 682 803 832 799 811 832 876 903 1003 1103 1141 1179 1125 1086 1067 1061 1074 1155 1251 1314 1291 1237 1234 1136 995 924 962 1006 1065 1113 1215 1287 1363 1416 1549 1592 1614 1653 1755 1864 1982 2066 2143 2103 2077 1996 1998 2026 2093 2242 2265 2154 2038 1969 1912 1859 1756 1659 1601 1558 1544
2671 2896 3160 3175 3076 2999 2921 2894 2854 2829 2842 2853 2811 2802 2784 2783 2740 2709 2610 2535 2438 2401 2304 2233 2202 2122 2082 2046 2017 2017 2007 1998 1974 1904 1784 1733 1602 1517 1458 1352 1354 1347 1476 1564 1625 1654 1642 1704 1797 1741 1748 1828 1721 1609 1634 1577 1519 1558 1535 1481 1460 1439 1413 1364 1313 1291 1247 1261 1230 1238 1252 1265 1276 1343 1396 1443 1587 1591 1587 1599 1622 1604 1610 1668 1705 1743 1797 1914 1989 2053 2134 2213 2258 2303 2410 2474 2520 2667 2634 2571 2561 2503 2493 2475 2426 2348 2290 2399 2289 2210 2189 2205 2226 2338 2467 2518 2583 2647 2490 2244 2146 2018 2076 2318 2336 2135 1997 1828 1724 1638 1594 1524 1439 1335 1270 1251 1331 1327 1242 1144 1028 861 772 693 623 666 638 610 585 632 698 769 869 969 1051 1122 1211 1246 1246 1300 1373 1410 1373 1292 1255 1083 863 792 760 837 811 738 601 385 212 211 210 210 210 210 210 209 210 209 209 208 207 216 232 287 313 344 395 423 431 471 601 704 782 734 719 731 788 871 943 964 989 975 997 1024 1104 1131 1176 1192 1203 1198 1230 1226 1182 1222 1245 1259 1289 1261 1151 1067 1024 958 862 757 726 641 490 602 698 767 812 817 875 907 968 998 1052 1152 1220 1271 1247 1168 1126 1196 1188 1183 1240 1334 1343 1312 1302 1212 1071 987 955 1073 1169 1271 1342 1376 1491 1575 1602 1516 1630 1720 1788 1899 1997 2008 2073 2145 2076 2069 2108 2139 2197 2248 2286 2178 2075 1980 1883 1788 1715 1657 1659 1674 1621
2611 2846 3155 3180 3127 3013 2890 2844 2814 2736 2753 2749 2740 2717 2695 2677 2683 2830 2649 2509 2446 2400 2327 2313 2303 2215 2172 2166 2092 2033 2030 2101 2011 1938 1841 1749 1589 1484 1424 1352 1336 1330 1364 1386 1426 1478 1516 1614 1672 1596 1652 1672 1663 1593 1494 1519 1448 1482 1426 1390 1401 1378 1356 1304 1284 1260 1196 1199 1188 1211 1214 1262 1266 1311 1404 1541 1715 1717 1713 1714 1718 1728 1754 1775 1804 1825 1873 1947 2007 2089 2143 2202 2287 2319 2370 2508 2605 2743 2762 2664 2645 2512 2511 2478 2451 2414 2327 2426 2270 2254 2251 2261 2224 2275 2393 2435 2423 2589 2540 2214 2053 1956 2050 2248 2121 1998 1872 1738 1638 1540 1505 1430 1355 1264 1179 1140 1203 1188 1134 1039 963 865 727 664 734 715 676 653 605 685 723 746 876 989 1076 1137 1220 1266 1308 1352 1402 1458 1414 1362 1267 1055 883 810 778 829 829 706 614 283 211 210 211 208 208 209 209 208 208 208 208 208 207 229 239 273 322 353 394 441 461 503 612 711 679 673 684 720 808 884 945 951 969 1002 1038 1023 1065 1133 1193 1218 1238 1203 1208 1166 1122 1217 1226 1135 1177 1211 1187 1119 1081 998 890 789 696 602 494 589 665 739 762 849 911 963 1021 1072 1130 1222 1310 1360 1332 1273 1248 1302 1302 1269 1251 1347 1383 1390 1377 1294 1176 1058 978 1034 1188 1329 1363 1482 1580 1600 1525 1475 1606 1651 1721 1842 1881 1900 1956 2051 2015 2053 2175 2270 2360 2373 2265 2156 2063 1974 1860 1754 1697 1713 1768 1728 1725
2637 2858 3081 3132 2974 2927 2831 2778 2750 2712 2670 2689 2683 2659 2632 2604 2605 2692 2727 2584 2561 2517 2501 2443 2393 2322 2269 2273 2169 2119 2104 2094 2013 1941 1841 1731 1589 1496 1426 1356 1345 1337 1332 1287 1311 1345 1453 1502 1565 1478 1593 1545 1605 1570 1484 1425 1391 1408 1352 1339 1342 1320 1289 1261 1237 1204 1194 1166 1194 1211 1218 1254 1249 1286 1403 1526 1688 1770 1786 1791 1822 1848 1858 1861 1868 1898 1935 1991 2054 2120 2246 2322 2376 2342 2377 2386 2544 2816 2859 2788 2731 2517 2513 2527 2504 2441 2355 2326 2321 2334 2320 2267 2174 2147 2170 2279 2383 2461 2404 2134 2007 1929 2056 2236 2058 1911 1786 1681 1622 1510 1425 1376 1299 1220 1137 1042 1038 1045 1057 971 891 820 677 715 791 756 699 661 635 698 747 777 887 1000 1081 1162 1245 1307 1344 1379 1453 1475 1452 1380 1253 1074 878 809 772 839 869 764 471 219 211 210 208 207 207 208 208 207 208 207 208 209 207 229 229 277 305 357 401 434 483 511 573 610 611 621 671 720 807 890 932 952 981 1033 1028 1031 999 1093 1146 1202 1237 1225 1241 1168 1071 1146 1161 1082 1133 1204 1219 1175 1110 997 886 773 689 611 496 580 631 689 756 841 913 992 1049 1117 1177 1261 1346 1420 1425 1356 1351 1364 1380 1335 1283 1347 1409 1447 1454 1372 1259 1123 1013 1003 1181 1294 1332 1470 1578 1539 1457 1446 1521 1633 1727 1718 1760 1821 1914 1937 1955 2030 2080 2135 2245 2357 2220 2136 2023 1931 1821 1743 1740 1815 1859 1820 1803
2677 2867 3150 3142 2987 2853 2806 2725 2661 2640 2614 2643 2586 2564 2551 2523 2506 2500 2618 2716 2768 2629 2581 2489 2462 2469 2543 2443 2304 2218 2180 2296 2188 2019 1912 1816 1655 1594 1556 1461 1392 1343 1332 1229 1218 1275 1322 1364 1427 1425 1446 1492 1546 1518 1439 1356 1334 1320 1300 1291 1276 1231 1199 1174 1162 1164 1149 1194 1240 1298 1334 1333 1302 1266 1293 1407 1516 1595 1668 1714 1787 1900 1981 1945 1943 1967 2000 2031 2091 2166 2261 2413 2443 2571 2676 2502 2440 2545 2669 2804 2777 2533 2518 2546 2550 2448 2352 2323 2340 2375 2321 2190 2152 2120 2043 2126 2221 2327 2359 2186 2021 1908 2010 2155 1942 1833 1696 1583 1532 1458 1345 1260 1207 1142 1095 986 927 896 848 810 781 728 746 831 813 760 711 651 640 732 784 830 878 1017 1126 1199 1284 1338 1363 1404 1430 1488 1478 1418 1267 1074 878 828 796 854 873 652 291 211 212 209 208 207 207 206 207 206 206 206 206 209 205 209 222 266 330 365 419 473 524 529 551 587 613 651 683 758 893 941 973 1014 1036 1026 1044 1049 1011 981 1052 1164 1228 1236 1241 1187 1081 1048 1061 1029 1084 1174 1207 1179 1063 970 848 728 666 530 484 568 633 705 780 860 936 1009 1077 1129 1198 1292 1353 1436 1447 1478 1469 1440 1440 1409 1360 1382 1467 1501 1506 1426 1295 1176 1073 1018 1107 1164 1293 1440 1461 1427 1380 1400 1529 1665 1647 1607 1658 1722 1791 1838 1931 1997 2127 2222 2282 2393 2279 2178 2091 1923 1788 1760 1841 1947 1931 1925 1914
2749 2906 2962 3029 2990 2928 2797 2726 2661 2591 2579 2549 2525 2511 2471 2453 2422 2411 2419 2541 2662 2731 2621 2552 2599 2656 2577 2468 2329 2258 2292 2258 2175 2079 1959 1880 1811 1760 1721 1535 1465 1366 1282 1208 1174 1186 1206 1249 1252 1280 1357 1471 1484 1428 1318 1306 1279 1255 1255 1232 1183 1168 1155 1126 1134 1155 1196 1252 1314 1435 1502 1482 1388 1294 1272 1294 1444 1502 1573 1662 1767 1860 2013 2092 2058 2025 2047 2087 2122 2183 2327 2429 2442 2637 2731 2763 2493 2646 2822 2787 2648 2516 2517 2564 2575 2437 2360 2337 2361 2427 2353 2221 2210 2160 2073 2009 2077 2120 2201 2142 2002 1876 1956 2024 1872 1755 1613 1538 1451 1393 1263 1194 1114 1067 1030 927 871 843 819 788 812 811 813 879 808 766 725 674 733 700 830 832 840 1004 1127 1220 1316 1391 1392 1435 1444 1513 1488 1389 1259 1056 892 844 791 869 805 443 212 209 210 207 206 205 205 205 205 204 204 204 203 205 206 206 211 308 358 386 482 591 589 601 599 596 623 698 747 796 935 958 960 969 994 1001 1028 1034 988 931 981 1087 1149 1182 1210 1221 1156 1050 970 954 1028 1098 1158 1113 996 912 785 682 606 561 487 576 628 690 765 862 947 1013 1069 1141 1185 1274 1341 1398 1442 1517 1525 1459 1479 1464 1441 1445 1524 1553 1513 1441 1320 1197 1088 1034 1087 1150 1277 1363 1324 1300 1305 1366 1473 1505 1512 1566 1625 1672 1756 1851 1930 2049 2192 2291 2406 2408 2286 2173 2035 1906 1799 1846 1908 2021 2036 2000 1915
2727 2781 2817 2835 3088 2915 2804 2731 2670 2594 2556 2521 2468 2455 2454 2421 2379 2346 2336 2406 2577 2587 2607 2661 2631 2500 2472 2554 2510 2490 2445 2283 2200 2115 1993 1931 1925 1829 1674 1591 1520 1392 1295 1202 1146 1127 1111 1152 1169 1269 1373 1456 1397 1325 1256 1244 1224 1207 1187 1156 1135 1120 1140 1174 1223 1244 1272 1239 1321 1438 1584 1596 1538 1363 1299 1279 1329 1444 1496 1608 1746 1829 1959 2056 2171 2107 2091 2147 2176 2201 2381 2510 2461 2513 2596 2761 2676 2587 2791 2874 2606 2521 2518 2575 2566 2447 2409 2379 2409 2516 2470 2285 2266 2220 2113 1966 1989 2050 2063 2025 1961 1861 1901 1900 1791 1674 1550 1472 1420 1341 1216 1142 1086 1020 943 965 907 856 820 888 920 923 901 875 823 785 723 711 772 721 821 828 849 908 1129 1225 1340 1419 1412 1473 1479 1468 1432 1326 1191 994 883 846 792 809 705 426 210 208 204 204 204 204 204 204 204 204 202 204 205 205 205 205 231 337 392 441 521 646 676 674 642 629 633 698 793 842 957 967 983 1031 1000 1006 1030 1016 991 916 924 1000 1045 1082 1197 1245 1206 1116 1037 943 947 1037 1075 1070 944 873 761 633 509 484 538 591 635 694 752 811 906 956 1026 1125 1147 1221 1309 1361 1404 1472 1540 1472 1468 1446 1452 1484 1536 1563 1522 1457 1341 1228 1133 1067 1075 1129 1253 1296 1223 1244 1304 1313 1357 1417 1500 1621 1728 1759 1833 1912 1972 2076 2194 2276 2388 2401 2306 2164 2008 1890 1846 1915 1991 2079 2016 1926 1886
2740 2716 2720 2763 2957 2935 2850 2706 2658 2583 2527 2480 2409 2369 2369 2375 2330 2309 2271 2264 2391 2417 2447 2490 2558 2475 2388 2392 2399 2378 2309 2264 2285 2157 2096 2046 2048 1927 1860 1729 1595 1525 1364 1228 1134 1069 1073 1096 1145 1215 1306 1362 1279 1223 1195 1178 1182 1178 1150 1120 1134 1172 1208 1277 1374 1380 1363 1325 1318 1415 1549 1647 1651 1513 1373 1317 1308 1404 1431 1522 1668 1779 1921 2028 2074 2124 2148 2188 2225 2236 2280 2337 2363 2529 2552 2625 2722 2682 2732 2856 2633 2563 2547 2567 2565 2485 2472 2445 2478 2455 2400 2334 2326 2294 2146 1975 1880 1866 1889 1909 1876 1842 1806 1763 1693 1590 1452 1350 1313 1279 1191 1086 1050 1004 975 968 1003 982 974 970 986 986 950 877 819 775 697 787 798 787 777 795 845 877 1069 1227 1324 1421 1462 1516 1527 1402 1304 1088 1002 924 880 868 804 735 610 383 209 206 204 203 204 204 204 204 204 202 204 204 205 205 205 206 239 359 463 544 621 726 790 779 725 659 693 719 800 876 927 946 980 1046 1026 1002 1020 1042 1026 977 878 904 946 1022 1088 1184 1238 1167 1083 983 861 924 943 944 912 846 746 635 575 485 544 603 651 724 736 773 829 906 954 1019 1063 1175 1293 1301 1308 1383 1464 1466 1419 1420 1430 1468 1544 1585 1539 1466 1346 1217 1126 1098 1086 1100 1167 1172 1227 1324 1429 1407 1456 1457 1464 1612 1737 1765 1823 1854 1939 2017 2121 2189 2326 2321 2223 2095 1951 1892 1961 1996 2014 2101 2003 1897 1811
2628 2625 2637 2667 2891 2882 2800 2726 2665 2579 2522 2484 2416 2333 2303 2277 2281 2261 2214 2179 2189 2284 2315 2352 2447 2457 2375 2309 2275 2225 2185 2136 2130 2225 2247 2202 2212 2070 1980 1787 1728 1568 1454 1308 1186 1058 1029 1045 1067 1149 1254 1226 1181 1163 1153 1147 1149 1131 1136 1133 1188 1257 1311 1383 1502 1522 1470 1402 1301 1377 1511 1612 1747 1712 1519 1459 1376 1327 1377 1442 1528 1711 1878 2003 2087 2156 2213 2236 2249 2228 2246 2258 2305 2361 2545 2674 2694 2753 2868 2849 2705 2685 2632 2571 2579 2487 2294 2299 2509 2516 2418 2312 2235 2186 2070 1990 1892 1846 1849 1866 1876 1862 1768 1673 1592 1495 1396 1316 1236 1191 1082 1045 1015 1004 1042 1102 1132 1086 1058 1042 1021 1008 993 892 850 786 758 830 840 805 836 850 879 906 992 1134 1275 1399 1461 1477 1490 1334 1125 1006 936 931 886 884 855 796 673 317 208 206 206 204 203 204 204 204 204 204 204 204 204 204 206 234 311 401 499 592 678 761 846 870 782 737 689 784 834 852 861 910 963 1022 1044 960 1010 1038 1053 981 926 850 873 939 978 1054 1109 1173 1098 996 854 807 828 834 850 776 681 642 544 515 531 555 621 638 631 693 754 806 845 903 1019 1148 1226 1265 1214 1320 1413 1424 1375 1365 1404 1472 1537 1592 1524 1428 1337 1215 1114 1101 1129 1152 1148 1201 1247 1379 1525 1566 1612 1526 1503 1596 1610 1647 1700 1789 1847 1980 2116 2222 2360 2341 2206 2062 1941 1961 2145 2075 2110 2117 2016 1949 1868
2567 2559 2568 2586 2760 2935 2855 2742 2682 2619 2549 2489 2416 2374 2314 2239 2192 2186 2163 2112 2097 2086 2140 2202 2321 2349 2423 2339 2231 2171 2127 2089 2068 2084 2211 2282 2150 2012 1934 1913 1768 1697 1505 1381 1288 1131 990 1013 1018 1114 1180 1135 1134 1128 1117 1078 1073 1042 1154 1222 1285 1362 1422 1481 1573 1607 1555 1443 1340 1348 1471 1577 1703 1847 1676 1572 1523 1454 1358 1399 1488 1664 1896 2030 2185 2239 2256 2345 2352 2374 2363 2393 2410 2406 2403 2533 2708 2801 2806 2775 2698 2749 2661 2618 2722 2597 2279 2239 2418 2445 2372 2412 2238 2109 2068 2027 1914 1877 1860 1904 1927 1853 1753 1673 1595 1492 1406 1278 1199 1056 1034 1016 1031 1085 1141 1189 1167 1100 1072 1053 1022 1044 1039 921 899 810 824 856 860 840 849 852 914 917 977 1136 1287 1407 1441 1457 1428 1271 1046 957 940 937 903 881 879 771 631 284 206 206 204 204 203 205 204 204 202 204 204 204 204 207 228 302 379 446 550 602 691 794 864 912 846 796 743 792 851 812 838 860 915 992 1015 939 996 1054 1056 1003 940 882 813 855 922 969 997 1109 1086 998 841 717 746 735 756 696 633 561 490 504 515 530 548 562 577 615 662 730 784 887 980 1061 1128 1208 1152 1278 1378 1374 1300 1325 1398 1456 1557 1588 1514 1403 1285 1194 1095 1102 1173 1245 1207 1224 1262 1385 1517 1621 1669 1616 1546 1558 1612 1649 1667 1735 1793 1905 2043 2143 2278 2298 2172 2034 1942 2005 2109 2165 2096 2033 1943 1863 1811
2483 2487 2494 2534 2697 2884 2965 2816 2712 2648 2588 2511 2433 2363 2327 2287 2230 2140 2082 2022 2007 1968 1968 1981 2057 2188 2262 2315 2324 2305 2178 2101 2006 1970 2060 2134 2087 1956 1864 1757 1818 1768 1617 1454 1358 1173 1028 964 978 1062 1090 1070 1099 1104 1035 993 1114 1128 1264 1322 1388 1500 1573 1540 1656 1662 1537 1468 1379 1339 1426 1529 1654 1806 1866 1653 1576 1525 1461 1567 1493 1692 1843 1976 2132 2272 2351 2389 2449 2472 2472 2637 2642 2628 2554 2520 2574 2775 2712 2605 2540 2635 2751 2764 2755 2597 2268 2157 2166 2224 2190 2291 2223 2162 2095 2020 1954 1928 1941 1991 2035 1833 1768 1690 1610 1503 1462 1345 1213 1097 1070 1078 1197 1254 1218 1201 1163 1115 1092 1045 1020 1067 1035 952 899 853 860 875 893 890 899 931 951 939 953 1105 1280 1345 1407 1398 1302 1125 976 950 945 933 896 880 899 825 648 292 206 204 203 203 204 208 204 204 204 204 204 207 209 212 280 336 410 477 543 579 666 815 904 941 935 868 813 815 849 759 774 807 886 1006 1009 924 962 1019 1079 1060 1029 970 892 806 825 875 1000 1035 1026 931 794 699 626 674 669 661 566 488 458 515 550 596 642 658 684 664 629 670 707 784 850 938 1064 1109 1077 1230 1318 1320 1209 1303 1382 1452 1537 1554 1460 1364 1245 1131 1090 1125 1240 1310 1266 1250 1313 1323 1422 1499 1608 1724 1683 1667 1619 1706 1740 1723 1748 1841 1954 2058 2199 2249 2127 2049 2022 2105 2207 2166 2085 2039 1970 1933 1814
2412 2418 2435 2491 2726 2844 2914 2832 2764 2691 2638 2556 2455 2370 2319 2272 2235 2193 2106 2037 1966 1875 1849 1846 1899 2036 2077 2192 2317 2301 2210 2065 1965 1928 1929 2012 1952 1874 1754 1693 1667 1655 1626 1504 1381 1209 1055 944 942 1034 1050 1056 1079 994 1044 1126 1212 1279 1371 1408 1482 1580 1653 1597 1709 1712 1604 1513 1414 1351 1421 1491 1592 1697 1844 1771 1683 1628 1589 1646 1642 1678 1749 1912 2075 2198 2312 2461 2512 2560 2680 2671 2788 2803 2635 2619 2656 2713 2695 2431 2366 2409 2670 2733 2570 2472 2236 2031 2051 2051 2069 2185 2226 2188 2153 2014 2005 2022 2004 2068 2166 1930 1868 1914 1776 1617 1514 1427 1353 1296 1294 1328 1356 1284 1216 1185 1172 1094 1069 1036 1049 1039 1041 965 916 861 881 947 962 963 997 1029 983 988 952 1080 1225 1336 1368 1367 1194 1047 960 953 944 923 884 909 852 717 633 220 205 203 202 203 203 203 204 203 204 204 207 233 247 264 339 365 438 487 591 637 701 838 917 981 968 887 894 842 802 753 739 804 884 930 973 935 881 967 1052 1061 1080 1018 901 832 777 826 884 914 849 834 715 658 602 608 606 567 506 447 461 551 600 673 734 767 815 818 765 705 664 751 807 866 963 986 1036 1176 1262 1231 1170 1280 1356 1460 1522 1478 1340 1279 1184 1093 1110 1210 1308 1358 1278 1313 1385 1460 1474 1481 1557 1706 1808 1786 1704 1675 1771 1827 1829 1829 1895 1999 2122 2243 2264 2137 2095 2170 2228 2205 2130 2100 2009 1895 1778
2327 2356 2374 2443 2674 2735 2848 2732 2677 2763 2656 2586 2497 2390 2314 2234 2193 2131 2063 1979 1923 1863 1788 1745 1784 1910 1983 2113 2246 2239 2116 2019 1880 1796 1828 1885 1827 1781 1733 1581 1534 1554 1570 1490 1387 1220 1051 952 927 1014 1031 1044 974 964 1093 1200 1291 1359 1439 1478 1555 1672 1729 1631 1749 1771 1638 1556 1437 1350 1407 1479 1606 1725 1812 1921 1878 1814 1700 1675 1656 1641 1715 1847 2009 2183 2314 2496 2629 2812 2828 2889 2842 2956 2840 2806 2811 2844 2815 2473 2371 2317 2335 2376 2384 2465 2073 1975 1961 1951 2001 2117 2209 2234 2224 2071 2070 2100 2056 2097 2104 2076 1982 2125 2012 2006 1776 1708 1654 1590 1506 1431 1401 1336 1252 1176 1116 1057 1031 1035 1058 1042 1054 964 907 907 892 991 995 1035 1069 1082 1014 1012 954 1024 1195 1320 1380 1288 1119 994 959 954 943 935 886 895 810 662 570 208 203 202 202 202 202 203 203 203 203 203 206 258 284 321 378 407 436 489 574 657 749 860 943 1014 993 879 902 817 785 758 760 745 832 903 964 889 841 925 959 1026 1047 1034 931 870 763 722 768 798 730 696 663 661 650 543 536 530 477 450 545 587 643 710 750 842 898 928 895 830 743 697 727 821 873 894 1039 1127 1178 1148 1162 1273 1363 1453 1476 1378 1253 1188 1126 1107 1166 1272 1367 1407 1301 1356 1456 1542 1603 1586 1564 1690 1815 1869 1789 1701 1757 1903 1982 1883 1877 1940 2075 2179 2236 2196 2165 2174 2224 2299 2204 2078 1947 1857 1753
2248 2274 2302 2449 2538 2697 2729 2608 2518 2621 2641 2655 2562 2485 2399 2260 2176 2107 2031 1938 1841 1801 1705 1609 1641 1801 1928 2042 2127 2120 1996 1914 1897 1746 1673 1708 1695 1638 1648 1499 1391 1442 1450 1421 1309 1181 1041 937 930 995 970 987 929 1017 1141 1228 1329 1423 1511 1573 1641 1742 1787 1673 1762 1807 1713 1591 1471 1360 1416 1491 1614 1744 1849 2009 2158 2077 1822 1723 1680 1683 1699 1790 1972 2166 2301 2485 2806 2835 2910 3013 3026 2934 3048 3100 3056 3039 2933 2460 2379 2307 2178 2197 2253 2184 2049 1972 1900 1813 1863 1919 2105 2083 2173 2134 2183 2312 2150 2129 2189 2261 2204 2122 2107 2071 1907 1735 1677 1616 1555 1489 1409 1328 1286 1211 1110 1043 1023 1050 1053 1025 1076 980 931 947 938 1044 1059 1096 1110 1099 1097 1048 997 982 1103 1216 1268 1263 1080 1000 977 958 941 954 915 859 773 517 364 204 201 201 201 201 202 203 203 203 203 203 207 235 313 355 399 409 481 501 595 688 819 932 966 1007 974 846 886 818 804 751 773 728 776 900 898 856 771 819 850 921 1022 1043 1054 951 829 709 663 681 670 664 658 581 556 544 532 532 496 514 600 664 700 729 781 896 967 1030 1026 918 897 781 766 737 854 889 943 999 1027 1056 1195 1285 1345 1392 1390 1282 1169 1100 1096 1178 1246 1348 1427 1467 1362 1390 1493 1640 1740 1695 1612 1692 1786 1843 1834 1758 1766 1890 2018 2019 1930 1932 2014 2074 2109 2180 2276 2277 2352 2220 2115 1989 1890 1816 1751
2163 2162 2204 2356 2461 2542 2563 2548 2419 2432 2486 2490 2480 2544 2512 2407 2240 2122 2022 1926 1836 1715 1610 1527 1539 1696 1833 1915 2010 1998 1957 1798 1752 1671 1580 1548 1562 1493 1505 1460 1300 1347 1329 1365 1246 1154 1021 910 923 882 918 929 1023 1113 1219 1314 1356 1490 1596 1649 1735 1826 1848 1739 1783 1869 1770 1623 1488 1375 1419 1504 1613 1738 1881 2103 2230 2300 2065 1773 1727 1694 1696 1766 1931 2058 2226 2416 2515 2580 2693 2750 2727 2718 2815 3051 3050 3099 2915 2420 2283 2173 2062 1963 2028 2105 2154 2073 1936 1707 1734 1832 1968 2048 2232 2280 2343 2183 2224 2280 2389 2412 2258 2052 2078 2008 1885 1761 1665 1609 1542 1471 1361 1287 1253 1202 1104 1028 1007 1028 1026 1020 1017 985 984 1023 1015 1097 1131 1174 1191 1205 1142 1095 1046 1021 1036 1056 1078 1119 1036 1013 984 964 955 931 922 742 672 376 271 205 202 201 201 201 202 203 203 203 202 203 205 229 323 353 397 440 497 540 696 796 888 948 978 974 871 831 852 795 811 751 738 694 737 865 840 745 730 847 946 990 970 1035 1082 1002 863 759 680 625 658 659 657 632 606 596 601 545 472 580 648 684 731 764 809 897 1003 1087 1078 980 972 904 868 824 765 803 848 898 996 1117 1258 1304 1322 1338 1287 1205 1085 1108 1178 1275 1345 1418 1502 1556 1452 1403 1498 1636 1778 1798 1724 1710 1743 1798 1901 1875 1814 1867 1990 2145 2017 1959 1993 2051 2121 2199 2311 2466 2348 2208 2108 1968 1865 1827 1844
2045 2050 2136 2274 2330 2374 2427 2389 2318 2351 2350 2317 2338 2419 2454 2364 2327 2212 2113 2001 1861 1742 1614 1498 1487 1587 1703 1861 1860 1842 1810 1723 1614 1558 1465 1395 1391 1374 1353 1343 1256 1231 1235 1326 1233 1139 999 893 872 945 1011 1023 1109 1152 1279 1395 1477 1555 1617 1695 1770 1862 1897 1789 1801 1905 1805 1648 1536 1387 1434 1514 1600 1760 1891 2145 2311 2413 2221 1882 1795 1712 1701 1715 1856 1961 2045 2174 2228 2298 2354 2377 2472 2483 2574 2704 2910 3032 2784 2473 2402 2193 2069 1952 1860 1898 2012 1872 1763 1651 1729 1914 2061 2149 2302 2425 2320 2161 2160 2232 2315 2355 2241 2030 2001 1966 1892 1783 1695 1586 1482 1387 1311 1260 1231 1188 1083 1029 993 1025 1018 1062 1064 1042 1054 1091 1093 1145 1205 1232 1223 1238 1166 1122 1117 1108 1060 965 946 949 985 984 983 974 942 967 782 690 464 227 204 201 201 201 201 201 201 202 202 203 202 204 208 242 325 360 414 463 512 587 749 818 915 951 961 947 807 806 833 781 797 755 758 735 665 818 764 664 763 893 988 996 990 1026 1073 970 791 718 668 612 655 655 654 588 612 575 561 537 445 598 643 700 773 818 848 917 1019 1115 1105 1070 1096 1013 990 934 858 792 882 955 1007 1118 1239 1264 1273 1257 1206 1139 1081 1139 1258 1344 1412 1483 1554 1622 1540 1423 1486 1609 1722 1808 1823 1812 1836 1812 1900 1982 1885 1865 1961 2149 2098 2012 2001 2082 2180 2307 2350 2437 2324 2154 2058 1967 1889 1890 1923
1924 1959 2069 2096 2175 2233 2324 2191 2209 2184 2250 2161 2194 2308 2305 2248 2224 2183 2132 1978 1892 1817 1684 1557 1445 1530 1671 1775 1728 1658 1605 1549 1523 1397 1265 1295 1151 1204 1165 1179 1172 1089 1172 1273 1234 1129 946 850 923 995 1060 1111 1176 1230 1317 1426 1498 1581 1637 1713 1816 1897 1895 1811 1851 1940 1843 1665 1574 1411 1429 1511 1616 1775 1939 2162 2477 2547 2384 2090 1958 1825 1750 1712 1796 1920 1986 2134 2183 2200 2289 2396 2493 2549 2611 2604 2663 2919 2939 2763 2560 2433 2212 2115 1929 1734 1699 1670 1633 1607 1797 2079 2210 2280 2253 2231 2213 2152 2083 2176 2171 2163 2180 2033 1924 1893 1814 1735 1680 1521 1376 1316 1262 1224 1195 1139 1054 1008 994 1020 1052 1078 1059 1071 1138 1154 1185 1184 1219 1267 1271 1207 1199 1209 1192 1179 1110 1032 895 869 919 958 974 960 956 950 736 591 300 206 202 200 201 201 200 200 201 201 202 202 202 205 213 246 289 361 438 494 547 613 751 839 909 901 896 804 773 727 784 775 786 786 740 682 632 749 704 637 781 895 977 977 984 965 977 870 710 655 595 617 651 635 632 563 561 558 449 433 489 553 632 710 821 878 926 1010 1086 1132 1157 1153 1211 1197 1175 1087 991 910 820 874 938 1061 1173 1211 1221 1193 1141 1067 1099 1185 1288 1401 1484 1582 1633 1709 1641 1525 1469 1573 1649 1758 1850 1881 1906 1920 1941 2024 1969 1894 1966 2080 2190 2065 2018 2106 2240 2346 2343 2298 2284 2169 2063 2014 2029 2009 1981
1803 1843 1921 1911 2070 2085 2142 2086 2012 2034 2059 2046 2069 2162 2230 2112 2061 2029 2059 1987 1920 1836 1724 1556 1429 1459 1561 1603 1515 1482 1439 1373 1231 1143 1069 1035 981 999 1031 1025 1026 980 1119 1203 1198 1084 895 850 926 1014 1077 1157 1217 1300 1376 1484 1551 1637 1691 1745 1872 1955 1910 1845 1911 1951 1799 1654 1552 1438 1463 1494 1580 1801 1944 2273 2450 2596 2415 2257 2068 1940 1858 1741 1737 1957 2018 2143 2219 2330 2361 2443 2522 2568 2595 2669 2789 2844 2905 2887 2605 2396 2264 1991 1897 1678 1582 1565 1531 1571 1842 2101 2303 2313 2249 2155 2136 2189 1996 2043 2020 1982 2064 1965 1855 1804 1770 1642 1559 1429 1343 1278 1223 1200 1169 1082 1035 1002 1006 1057 1070 1067 1066 1083 1127 1195 1267 1247 1312 1331 1291 1262 1257 1289 1260 1234 1200 1124 948 794 890 971 991 980 922 807 685 430 277 201 201 201 200 200 200 201 202 201 202 203 204 208 261 298 348 393 459 511 578 645 778 831 834 876 779 742 722 707 728 772 757 789 811 705 583 656 613 672 789 861 907 948 979 906 842 809 654 632 538 631 587 559 556 555 530 499 487 534 593 659 695 750 820 919 1017 1101 1151 1185 1230 1258 1273 1353 1313 1230 1113 1008 925 857 962 1048 1131 1170 1173 1132 1062 1074 1161 1227 1344 1473 1564 1667 1752 1778 1673 1609 1564 1562 1599 1672 1753 1809 1900 2005 2067 2108 2029 2004 1984 2047 2172 2108 2080 2097 2175 2276 2263 2175 2167 2111 2110 2141 2135 2139 2032
