ncols         54
nrows         70
xllcorner     560250.000000
yllcorner     7625950.000000
cellsize      25.000000
NODATA_value  -9999.0
95.309998 93.910004 93.089996 92.639999 92.360001 92.120003 93.230003 94.570000 94.400002 92.339996 89.500000 85.930000 83.010002 82.529999 82.320000 82.019997 81.989998 82.120003 83.099998 84.769997 87.730003 88.570000 88.680000 88.919998 89.309998 89.169998 88.769997 88.339996 87.690002 86.849998 85.330002 83.550003 81.320000 78.120003 74.309998 73.339996 74.059998 75.889999 78.500000 80.500000 81.910004 82.360001 82.389999 82.379997 82.470001 82.510002 82.550003 82.349998 80.830002 78.680000 76.680000 76.830002 77.550003 78.470001
94.860001 93.809998 93.139999 92.910004 92.629997 92.449997 94.290001 95.860001 95.760002 93.589996 90.099998 86.459999 83.690002 83.180000 83.019997 82.790001 82.650002 82.669998 84.349998 86.169998 88.110001 88.739998 88.449997 88.800003 89.120003 88.949997 88.620003 88.349998 87.949997 87.019997 85.489998 83.919998 81.279999 78.080002 74.639999 73.930000 74.370003 76.279999 78.599998 80.839996 82.470001 83.010002 83.500000 83.510002 83.239998 83.199997 83.260002 83.010002 80.790001 77.930000 76.129997 76.699997 76.459999 76.580002
95.110001 94.190002 93.570000 93.129997 93.019997 93.290001 95.570000 97.230003 96.970001 94.660004 91.070000 87.129997 84.529999 83.910004 83.680000 83.570000 83.379997 83.930000 85.559998 87.589996 89.209999 89.010002 88.290001 88.220001 88.529999 88.500000 88.220001 88.139999 87.860001 86.959999 85.419998 83.550003 80.900002 78.290001 75.099998 74.500000 75.209999 76.779999 79.410004 81.519997 83.190002 83.739998 84.160004 83.940002 84.019997 84.190002 83.940002 83.320000 80.849998 77.959999 76.330002 76.379997 76.120003 76.139999
95.510002 94.550003 93.870003 93.519997 93.419998 93.820000 96.180000 97.860001 97.580002 95.629997 91.839996 88.309998 85.269997 84.449997 84.309998 84.019997 84.000000 85.050003 86.930000 89.059998 90.120003 89.559998 88.160004 87.650002 87.739998 87.940002 87.739998 87.839996 87.680000 86.779999 85.370003 83.790001 81.160004 78.419998 76.620003 75.629997 76.120003 77.750000 80.900002 82.410004 83.610001 84.239998 84.519997 84.669998 84.650002 84.580002 84.349998 83.570000 81.059998 78.190002 76.440002 76.349998 76.150002 75.919998
95.589996 95.199997 94.309998 93.879997 93.949997 94.480003 96.760002 98.440002 98.360001 96.720001 93.559998 90.150002 86.449997 84.349998 84.599998 84.290001 84.220001 85.809998 88.180000 90.059998 90.629997 89.860001 88.339996 87.190002 86.900002 87.029999 87.269997 87.480003 87.339996 86.800003 85.500000 83.779999 81.410004 79.029999 77.669998 76.400002 77.199997 78.279999 81.070000 83.019997 84.059998 84.860001 85.239998 85.320000 85.410004 85.430000 84.910004 83.940002 82.040001 79.900002 78.629997 78.150002 77.349998 76.650002
95.940002 95.550003 94.849998 94.500000 94.470001 94.879997 97.160004 98.889999 99.080002 98.050003 95.180000 91.970001 88.349998 85.529999 84.610001 84.379997 84.510002 86.300003 88.849998 90.750000 90.959999 90.110001 88.760002 87.059998 86.279999 86.430000 86.959999 87.400002 87.339996 86.519997 85.470001 83.919998 81.400002 79.459999 78.169998 77.709999 77.830002 78.400002 80.900002 83.099998 84.220001 85.089996 85.669998 85.989998 86.169998 86.029999 85.290001 84.379997 83.209999 82.089996 81.279999 80.660004 79.970001 78.660004
96.339996 95.910004 95.440002 95.099998 94.970001 96.050003 97.959999 99.449997 99.949997 99.309998 97.199997 94.379997 90.879997 87.239998 84.629997 84.599998 85.239998 86.889999 89.290001 90.739998 91.070000 90.279999 88.809998 87.000000 85.849998 86.029999 86.809998 87.309998 86.889999 86.169998 84.930000 83.660004 81.440002 79.339996 78.750000 78.599998 78.580002 78.550003 80.260002 82.650002 84.750000 85.949997 86.360001 86.760002 86.639999 86.339996 85.669998 84.889999 84.019997 83.239998 82.559998 81.970001 81.129997 80.129997
96.550003 96.459999 95.940002 95.440002 95.400002 96.389999 98.470001 99.879997 100.480003 100.080002 98.779999 95.860001 92.269997 89.120003 85.440002 84.790001 85.650002 87.099998 89.180000 90.610001 91.070000 90.019997 88.320000 86.209999 85.599998 85.879997 86.550003 86.860001 86.510002 85.500000 84.190002 82.809998 81.029999 79.290001 79.059998 78.980003 78.800003 79.040001 79.730003 81.949997 84.430000 86.150002 87.430000 87.699997 87.580002 86.739998 85.879997 84.910004 84.089996 83.279999 82.440002 81.570000 80.830002 80.309998
96.849998 96.639999 96.290001 95.870003 96.169998 97.720001 99.480003 100.529999 100.839996 100.540001 99.029999 96.480003 92.750000 89.160004 85.769997 85.050003 85.889999 87.269997 89.230003 90.339996 90.620003 89.629997 87.419998 85.389999 85.250000 85.709999 86.330002 86.449997 85.459999 84.349998 83.139999 81.870003 80.230003 79.669998 79.400002 79.269997 79.059998 79.089996 80.080002 82.029999 84.610001 86.570000 87.720001 88.050003 87.919998 87.250000 86.199997 85.080002 83.610001 82.309998 81.080002 80.029999 79.650002 79.500000
96.980003 96.839996 96.419998 96.209999 96.940002 98.820000 100.290001 101.190002 101.300003 100.570000 99.040001 96.330002 92.699997 89.070000 85.750000 85.059998 85.860001 87.279999 88.910004 89.959999 89.849998 88.660004 86.760002 84.620003 84.769997 85.339996 85.879997 85.839996 84.860001 83.349998 82.080002 81.050003 79.839996 79.620003 79.500000 79.330002 79.180000 79.389999 79.349998 82.180000 84.879997 86.620003 87.669998 88.099998 87.919998 87.199997 86.110001 84.730003 83.220001 81.089996 79.059998 78.120003 77.580002 77.150002
97.199997 96.970001 96.730003 96.570000 97.889999 100.220001 101.290001 101.739998 101.400002 100.559998 99.040001 96.370003 92.480003 88.470001 85.300003 84.879997 85.930000 87.019997 87.910004 88.410004 88.339996 87.330002 85.379997 83.570000 83.889999 84.629997 85.209999 85.260002 84.709999 83.430000 82.300003 81.050003 79.849998 79.529999 79.430000 79.370003 79.330002 79.459999 80.419998 82.620003 84.849998 86.349998 87.120003 87.529999 87.519997 86.879997 85.849998 84.459999 82.750000 80.349998 77.290001 75.820000 75.419998 74.779999
97.669998 97.320000 97.080002 97.040001 98.989998 100.930000 101.620003 102.050003 101.510002 100.550003 98.949997 96.419998 92.290001 87.470001 84.820000 84.349998 85.129997 85.959999 86.699997 86.860001 86.580002 85.540001 83.779999 82.500000 82.720001 83.419998 84.220001 84.739998 84.690002 84.370003 83.769997 82.809998 81.080002 79.650002 79.559998 79.510002 79.650002 79.550003 81.309998 83.389999 85.400002 86.309998 87.000000 87.110001 86.839996 86.500000 85.580002 84.419998 82.529999 80.139999 76.989998 74.959999 74.570000 74.250000
98.169998 97.919998 97.790001 98.629997 100.339996 101.629997 102.199997 102.220001 101.730003 100.779999 98.730003 96.260002 92.260002 87.580002 84.309998 83.839996 83.870003 84.199997 84.620003 84.779999 84.279999 83.480003 81.970001 81.080002 81.419998 81.980003 83.019997 83.849998 84.709999 85.370003 85.180000 83.820000 81.940002 79.860001 79.570000 79.440002 79.760002 80.730003 82.940002 84.919998 86.300003 87.080002 87.139999 87.050003 86.769997 86.169998 85.510002 84.489998 82.849998 80.709999 77.790001 75.129997 74.529999 74.169998
98.440002 98.209999 98.519997 99.120003 100.779999 101.910004 102.370003 102.379997 101.720001 100.449997 98.150002 95.940002 92.330002 88.529999 84.620003 82.949997 82.669998 82.629997 82.660004 82.529999 82.239998 81.620003 80.760002 80.110001 80.290001 80.650002 81.790001 83.199997 84.620003 85.699997 85.680000 84.330002 81.760002 80.000000 79.790001 79.680000 79.970001 81.470001 83.839996 85.629997 86.970001 87.410004 87.459999 87.180000 86.540001 86.000000 85.300003 84.379997 82.839996 81.169998 78.580002 76.239998 74.930000 74.070000
98.389999 98.529999 99.120003 100.070000 101.269997 101.959999 102.480003 102.239998 101.500000 100.320000 97.910004 95.739998 92.830002 89.529999 85.779999 83.160004 81.949997 81.779999 81.519997 81.250000 80.930000 80.320000 79.680000 79.570000 79.500000 79.830002 80.870003 82.550003 84.169998 85.220001 85.339996 84.120003 81.879997 79.860001 79.790001 79.860001 81.000000 82.889999 85.040001 86.379997 87.529999 87.639999 87.599998 87.029999 86.279999 85.709999 84.959999 84.110001 82.970001 81.320000 79.180000 77.230003 76.650002 76.160004
98.209999 98.650002 99.570000 100.360001 101.309998 101.959999 102.389999 102.099998 101.330002 100.129997 98.500000 96.199997 93.099998 90.440002 87.389999 84.629997 82.650002 82.040001 81.510002 81.099998 80.480003 79.970001 79.330002 79.169998 78.940002 79.230003 80.389999 81.839996 83.519997 84.540001 84.760002 83.400002 81.239998 80.029999 79.809998 80.900002 82.690002 84.510002 85.940002 87.019997 87.739998 87.989998 87.820000 87.089996 86.059998 85.360001 84.480003 83.699997 82.730003 81.529999 80.610001 80.129997 79.879997 79.989998
98.440002 98.910004 99.720001 100.540001 101.150002 101.760002 102.029999 101.730003 100.879997 99.760002 98.459999 96.510002 94.000000 91.339996 88.750000 86.500000 84.230003 83.010002 82.389999 81.779999 80.839996 79.879997 79.379997 79.139999 78.760002 78.809998 79.750000 81.050003 82.620003 83.690002 83.430000 82.220001 80.470001 79.989998 80.910004 82.370003 84.209999 85.620003 86.709999 87.529999 87.779999 87.949997 87.480003 86.849998 85.750000 85.040001 84.080002 83.180000 82.489998 82.220001 82.349998 82.500000 82.709999 82.379997
98.540001 99.169998 99.870003 100.370003 100.720001 100.919998 100.989998 100.830002 100.279999 99.080002 97.790001 96.309998 94.639999 92.029999 89.860001 87.940002 86.230003 84.870003 83.730003 82.919998 81.629997 80.489998 79.690002 79.160004 78.730003 78.480003 79.139999 80.290001 81.480003 82.250000 81.980003 80.760002 79.879997 79.849998 81.110001 82.879997 84.639999 86.080002 86.989998 87.519997 87.489998 87.459999 87.059998 86.830002 85.739998 84.639999 83.620003 82.830002 82.599998 82.959999 83.510002 83.830002 83.949997 83.849998
98.970001 99.550003 100.169998 100.209999 100.089996 100.000000 99.730003 99.669998 98.900002 98.050003 96.889999 95.800003 93.930000 92.139999 90.599998 89.120003 87.389999 85.930000 84.349998 83.199997 81.989998 80.699997 79.699997 78.830002 78.269997 78.160004 78.440002 79.080002 79.879997 80.260002 80.110001 79.849998 79.500000 79.820000 80.860001 82.980003 84.540001 85.870003 86.839996 87.480003 87.080002 87.180000 86.970001 86.459999 85.449997 84.370003 83.059998 82.360001 82.639999 83.300003 83.809998 84.360001 84.830002 84.830002
99.620003 100.169998 100.410004 100.110001 99.510002 98.989998 98.389999 98.080002 97.669998 96.730003 95.779999 94.519997 92.879997 91.510002 90.190002 88.870003 87.339996 86.000000 84.620003 83.070000 81.949997 80.510002 79.120003 78.250000 77.809998 77.879997 78.019997 78.580002 79.070000 79.440002 79.459999 79.470001 79.599998 79.720001 80.449997 82.120003 83.730003 85.029999 85.809998 86.519997 86.889999 86.639999 86.169998 85.879997 84.980003 83.730003 82.620003 82.059998 82.389999 83.180000 83.949997 84.589996 85.080002 85.199997
100.059998 100.510002 100.320000 99.769997 98.870003 98.029999 97.419998 96.769997 95.970001 95.400002 94.230003 93.169998 91.580002 90.220001 89.250000 88.220001 86.919998 85.730003 84.370003 83.139999 81.709999 80.099998 78.459999 77.730003 77.620003 77.800003 78.220001 79.150002 79.820000 79.790001 79.449997 79.559998 79.599998 79.699997 79.750000 80.940002 82.239998 83.230003 84.400002 85.070000 85.669998 85.690002 85.239998 84.940002 84.349998 83.300003 81.730003 81.440002 82.169998 82.910004 83.809998 84.510002 85.019997 85.320000
100.089996 100.440002 100.019997 99.160004 98.239998 97.320000 96.500000 95.739998 94.940002 94.150002 92.959999 91.639999 90.129997 89.160004 88.540001 87.669998 86.680000 85.470001 84.199997 83.099998 81.820000 80.419998 78.699997 77.680000 77.300003 77.419998 78.459999 79.800003 80.709999 80.779999 80.629997 80.180000 79.809998 79.650002 79.529999 79.970001 80.699997 81.680000 82.470001 83.209999 83.919998 84.220001 84.400002 83.949997 83.300003 82.449997 80.980003 80.779999 81.510002 82.339996 83.290001 83.959999 84.680000 85.019997
99.410004 99.610001 99.349998 98.449997 97.449997 96.519997 95.430000 94.800003 93.959999 93.099998 91.800003 90.290001 89.089996 88.529999 88.050003 87.540001 86.639999 85.459999 84.070000 83.050003 81.709999 80.449997 78.660004 77.559998 76.980003 77.309998 78.199997 79.760002 80.900002 81.389999 81.480003 81.190002 80.680000 80.010002 79.519997 79.349998 79.739998 79.989998 80.559998 81.250000 81.760002 82.139999 82.379997 82.449997 81.790001 80.900002 80.129997 79.680000 80.610001 81.580002 82.370003 83.199997 83.919998 84.349998
98.440002 98.650002 98.430000 97.720001 96.559998 95.559998 94.739998 93.870003 92.860001 91.839996 90.550003 89.400002 88.519997 88.379997 87.919998 87.330002 86.339996 85.220001 84.089996 82.989998 81.690002 80.400002 78.769997 77.419998 76.690002 76.830002 77.849998 79.320000 80.550003 81.029999 81.419998 81.620003 81.260002 81.080002 80.190002 79.410004 79.099998 79.029999 79.370003 79.820000 80.250000 80.489998 80.599998 80.449997 80.080002 79.400002 79.070000 78.860001 79.559998 80.660004 81.699997 82.559998 83.050003 83.690002
97.430000 97.470001 97.209999 96.650002 95.760002 94.660004 93.690002 92.739998 91.839996 90.930000 89.919998 89.150002 88.419998 88.169998 87.800003 87.160004 86.099998 85.040001 83.930000 82.820000 81.559998 80.110001 78.820000 77.489998 76.370003 76.330002 77.110001 78.120003 79.370003 80.339996 81.139999 81.800003 81.989998 81.709999 80.760002 79.919998 78.980003 78.800003 78.570000 78.650002 78.750000 78.940002 78.760002 78.760002 78.430000 78.150002 78.040001 78.230003 78.900002 79.809998 80.820000 81.430000 81.949997 82.519997
96.360001 96.070000 95.669998 95.550003 94.629997 93.680000 92.519997 91.760002 91.010002 90.370003 89.500000 89.110001 88.620003 88.110001 87.589996 86.739998 85.860001 84.940002 83.779999 82.589996 81.190002 80.059998 78.690002 77.349998 76.360001 76.269997 76.330002 77.080002 78.080002 79.449997 80.790001 81.519997 81.930000 81.919998 81.489998 81.290001 79.900002 79.279999 78.680000 78.379997 78.169998 77.930000 77.779999 77.529999 77.489998 77.339996 77.320000 77.449997 78.150002 79.050003 79.889999 80.290001 80.739998 81.269997
95.699997 94.809998 94.220001 93.690002 93.080002 92.050003 91.430000 91.019997 90.540001 89.949997 89.599998 89.290001 88.580002 88.139999 87.330002 86.610001 85.800003 84.919998 83.900002 82.620003 81.180000 79.989998 78.620003 77.370003 76.279999 76.080002 75.570000 75.980003 77.160004 78.309998 79.949997 81.160004 82.120003 82.370003 82.480003 82.199997 81.470001 80.550003 79.769997 79.110001 78.209999 77.309998 76.959999 76.639999 76.480003 76.500000 76.650002 77.099998 77.660004 78.430000 79.029999 79.209999 79.449997 79.919998
94.739998 94.010002 92.989998 92.199997 91.510002 90.889999 90.660004 90.370003 90.050003 89.790001 89.419998 89.169998 88.559998 88.089996 87.239998 86.379997 85.529999 85.169998 84.059998 82.709999 81.540001 80.160004 78.540001 77.230003 76.070000 75.860001 75.739998 75.680000 76.410004 77.370003 79.110001 80.440002 81.459999 82.029999 82.570000 82.620003 82.099998 81.360001 80.589996 79.660004 78.250000 77.089996 76.410004 76.040001 76.000000 75.930000 76.150002 76.779999 77.699997 78.309998 78.610001 78.760002 78.720001 79.019997
93.419998 92.750000 91.910004 91.169998 90.570000 90.070000 89.820000 89.629997 89.440002 89.419998 89.019997 88.489998 88.430000 87.650002 86.860001 86.029999 85.190002 84.709999 83.830002 82.739998 81.379997 80.269997 78.709999 77.279999 76.139999 75.849998 75.519997 75.290001 75.699997 76.500000 77.809998 79.250000 80.169998 81.070000 81.989998 82.279999 81.989998 81.370003 80.529999 79.800003 78.300003 77.010002 75.980003 75.669998 75.629997 75.610001 75.519997 76.389999 77.300003 78.190002 78.459999 78.419998 78.419998 78.389999
92.080002 91.830002 91.150002 90.550003 90.080002 89.709999 89.400002 89.250000 88.940002 88.790001 88.480003 88.190002 87.720001 87.250000 86.419998 85.540001 84.949997 84.440002 83.730003 82.760002 81.529999 80.250000 78.870003 78.070000 77.029999 76.250000 75.169998 75.110001 74.940002 75.570000 76.570000 77.730003 78.680000 79.970001 81.190002 81.820000 81.550003 80.839996 80.180000 79.309998 77.870003 76.550003 75.660004 75.459999 75.389999 75.699997 75.300003 75.959999 77.050003 78.080002 78.500000 78.500000 78.309998 78.050003
91.279999 91.070000 90.510002 89.930000 89.629997 89.360001 89.190002 88.809998 88.540001 88.110001 88.050003 87.870003 87.430000 86.760002 86.110001 85.440002 84.849998 84.349998 83.730003 82.669998 81.349998 80.279999 79.279999 78.709999 78.050003 77.190002 75.930000 74.849998 74.739998 74.790001 75.400002 76.209999 77.320000 78.610001 80.019997 80.930000 80.959999 80.309998 79.550003 78.510002 77.070000 75.919998 75.269997 75.190002 75.330002 75.430000 75.650002 75.500000 76.430000 77.820000 78.500000 78.489998 78.300003 78.040001
90.949997 90.559998 89.940002 89.599998 89.199997 89.019997 88.750000 88.720001 88.169998 88.040001 88.099998 88.120003 87.279999 86.330002 85.790001 85.290001 84.730003 84.199997 83.430000 82.519997 81.160004 80.019997 79.470001 79.080002 78.639999 77.809998 76.320000 75.120003 74.500000 74.470001 74.680000 75.489998 76.750000 78.019997 79.410004 80.209999 80.470001 79.860001 78.769997 77.790001 76.500000 75.400002 75.120003 75.129997 75.290001 75.419998 75.309998 75.449997 76.129997 77.419998 78.129997 78.150002 78.040001 77.820000
91.000000 90.070000 89.750000 89.309998 88.790001 88.669998 88.589996 88.180000 87.910004 88.099998 88.269997 88.040001 87.099998 86.129997 85.510002 85.000000 84.529999 84.099998 83.300003 82.279999 81.019997 80.209999 79.440002 78.930000 78.410004 77.660004 76.599998 75.180000 74.209999 74.300003 74.769997 75.480003 76.650002 77.750000 79.019997 79.709999 79.760002 79.290001 78.279999 77.040001 75.830002 75.040001 74.919998 74.889999 75.220001 75.279999 75.300003 75.489998 75.839996 76.800003 77.690002 77.889999 77.639999 77.309998
90.820000 90.059998 89.290001 88.680000 88.330002 88.339996 88.250000 87.940002 87.709999 88.230003 88.330002 87.690002 86.750000 86.010002 85.370003 84.849998 84.519997 83.949997 83.129997 82.029999 80.690002 80.040001 79.279999 78.750000 77.980003 76.889999 75.930000 74.790001 74.059998 74.190002 74.800003 75.839996 76.989998 78.129997 78.940002 79.209999 79.120003 78.830002 77.860001 76.589996 75.459999 74.820000 75.099998 74.739998 74.989998 75.199997 75.379997 75.300003 75.980003 76.769997 77.639999 77.720001 77.519997 76.910004
90.639999 89.669998 88.650002 87.930000 87.620003 87.690002 87.720001 87.540001 87.540001 88.019997 88.019997 87.209999 86.489998 85.769997 85.339996 84.989998 84.500000 84.019997 83.019997 82.029999 80.809998 79.949997 79.300003 78.470001 77.110001 76.050003 74.910004 74.110001 73.699997 74.379997 75.419998 76.629997 77.849998 78.540001 78.800003 78.750000 78.580002 78.180000 77.529999 76.290001 75.029999 74.669998 74.730003 74.870003 74.940002 74.930000 75.370003 75.750000 76.320000 77.070000 77.589996 77.650002 77.279999 76.669998
90.300003 89.239998 87.980003 87.209999 87.050003 86.940002 87.250000 87.220001 87.300003 87.620003 87.300003 86.599998 85.949997 85.680000 85.050003 84.760002 84.419998 83.889999 83.150002 82.209999 81.180000 80.290001 79.519997 78.400002 76.879997 75.440002 74.269997 73.279999 73.370003 74.760002 76.269997 77.739998 78.699997 78.870003 78.459999 78.160004 77.959999 77.800003 77.209999 76.059998 74.839996 74.620003 74.610001 74.589996 74.949997 75.139999 75.839996 76.610001 77.129997 77.519997 77.709999 77.650002 77.320000 76.570000
89.570000 88.349998 87.029999 86.330002 86.489998 86.550003 86.669998 86.800003 87.129997 87.169998 86.849998 86.389999 85.660004 85.309998 84.790001 84.529999 84.320000 83.910004 83.320000 82.650002 81.699997 81.059998 80.029999 78.550003 76.660004 75.010002 73.709999 72.900002 73.709999 75.290001 77.180000 78.660004 79.199997 78.989998 78.199997 77.699997 77.550003 77.199997 76.699997 75.610001 74.489998 74.349998 74.419998 74.779999 74.930000 76.050003 76.910004 77.739998 78.099998 78.000000 77.959999 77.750000 77.209999 76.540001
88.690002 87.349998 86.040001 85.760002 85.739998 86.120003 86.419998 86.540001 86.970001 87.070000 86.879997 86.199997 85.650002 85.099998 84.629997 84.379997 84.209999 84.120003 83.680000 83.070000 82.309998 81.559998 80.650002 79.150002 77.110001 74.839996 73.160004 72.169998 73.839996 75.690002 77.860001 79.320000 79.500000 79.029999 77.980003 77.360001 77.019997 76.550003 75.970001 75.000000 74.279999 74.400002 74.430000 74.860001 75.930000 77.000000 78.230003 78.709999 78.639999 78.559998 78.260002 77.900002 77.389999 76.629997
87.519997 86.290001 85.440002 85.339996 85.440002 85.699997 85.970001 86.650002 86.620003 86.500000 86.470001 85.889999 85.379997 84.919998 84.199997 83.930000 84.029999 84.089996 84.000000 83.480003 82.779999 82.209999 81.370003 80.010002 78.139999 74.820000 72.900002 71.260002 73.879997 76.040001 78.580002 79.750000 79.519997 78.830002 77.830002 77.129997 76.449997 75.790001 75.199997 74.529999 74.209999 74.279999 74.410004 75.449997 76.760002 77.949997 78.940002 79.370003 79.029999 78.629997 78.300003 78.010002 77.540001 76.839996
86.550003 85.510002 85.019997 85.120003 85.300003 85.540001 86.099998 86.160004 86.080002 85.760002 85.559998 85.190002 84.760002 84.430000 83.660004 83.320000 83.550003 83.910004 84.059998 83.570000 83.059998 82.550003 81.910004 80.809998 78.650002 75.230003 72.550003 71.449997 73.930000 76.239998 78.419998 79.370003 79.059998 78.480003 77.529999 76.809998 76.050003 75.120003 74.570000 73.849998 73.889999 74.120003 75.059998 76.089996 77.660004 78.860001 79.360001 79.440002 79.150002 78.599998 78.339996 77.870003 77.510002 77.120003
85.360001 84.660004 84.779999 85.089996 85.250000 85.930000 86.199997 85.870003 85.400002 84.919998 84.629997 84.269997 84.040001 83.750000 83.160004 82.910004 83.180000 83.610001 83.620003 83.470001 83.190002 83.000000 82.120003 81.110001 78.860001 75.599998 72.300003 70.739998 73.160004 74.879997 76.800003 77.669998 77.830002 77.510002 77.120003 76.589996 75.949997 75.379997 74.360001 73.400002 73.519997 74.510002 75.709999 77.110001 78.510002 79.430000 79.699997 79.540001 79.029999 78.440002 78.019997 77.779999 77.389999 76.919998
84.290001 84.089996 84.519997 85.190002 86.169998 86.860001 86.769997 85.879997 84.900002 84.410004 84.040001 83.559998 83.410004 82.779999 82.570000 82.389999 82.760002 82.860001 82.980003 82.940002 82.800003 82.800003 82.220001 81.000000 78.680000 75.639999 72.260002 69.900002 71.510002 72.620003 74.260002 75.250000 75.849998 76.070000 76.279999 76.080002 75.839996 75.300003 74.279999 73.300003 73.559998 74.809998 76.709999 78.089996 79.120003 79.510002 79.669998 79.290001 78.709999 78.120003 77.779999 77.379997 77.010002 76.440002
83.480003 83.849998 84.959999 86.150002 87.449997 88.389999 88.320000 87.410004 85.720001 84.599998 83.940002 83.550003 83.250000 82.580002 82.290001 82.080002 82.139999 82.080002 82.080002 81.919998 82.300003 82.400002 81.930000 80.639999 78.739998 76.019997 72.720001 70.379997 69.599998 70.209999 70.669998 71.660004 72.839996 73.669998 74.040001 74.699997 75.239998 75.190002 74.089996 72.919998 72.849998 74.870003 77.139999 78.379997 79.180000 79.620003 79.559998 78.860001 78.209999 77.800003 77.300003 76.800003 76.300003 75.650002
83.089996 84.370003 85.709999 87.290001 89.139999 89.730003 89.860001 89.250000 88.040001 86.580002 84.820000 84.209999 83.779999 82.599998 82.220001 81.730003 81.550003 81.430000 81.250000 81.160004 81.320000 81.720001 81.279999 80.139999 78.260002 75.980003 73.269997 71.330002 70.059998 68.260002 68.470001 69.080002 69.830002 70.529999 71.570000 72.760002 73.750000 74.239998 73.750000 72.480003 72.230003 74.540001 76.750000 78.150002 79.120003 79.250000 79.129997 78.519997 77.790001 77.379997 76.849998 76.389999 75.550003 74.949997
83.230003 84.839996 86.800003 88.599998 90.339996 91.330002 91.570000 91.290001 90.129997 88.839996 87.529999 86.080002 85.449997 84.769997 83.980003 82.599998 80.949997 80.739998 80.519997 80.199997 80.339996 80.709999 80.400002 79.440002 77.769997 76.230003 74.330002 73.370003 72.169998 70.570000 68.660004 67.220001 67.339996 67.750000 68.940002 70.279999 71.830002 72.790001 72.930000 71.790001 71.070000 73.070000 75.629997 77.449997 78.459999 78.680000 78.339996 77.839996 77.180000 76.680000 75.930000 75.510002 74.709999 73.639999
83.230003 85.430000 87.660004 89.629997 91.440002 92.470001 92.870003 92.669998 91.680000 90.559998 89.010002 87.809998 87.010002 86.190002 85.250000 84.400002 82.300003 81.139999 80.610001 79.849998 79.349998 79.620003 79.519997 78.820000 77.570000 76.489998 75.489998 74.790001 74.190002 73.050003 70.889999 68.559998 65.879997 65.800003 67.029999 68.139999 69.690002 71.099998 71.830002 71.169998 69.739998 71.309998 73.870003 75.930000 77.370003 77.779999 77.580002 77.110001 76.589996 76.230003 75.339996 74.349998 73.269997 71.930000
82.930000 85.500000 88.279999 90.269997 91.980003 93.199997 93.650002 93.349998 92.720001 91.419998 89.970001 88.910004 88.099998 87.269997 86.239998 85.629997 84.150002 83.029999 81.400002 80.160004 79.010002 78.680000 78.559998 77.930000 77.540001 76.959999 76.389999 75.870003 75.470001 74.570000 72.639999 70.099998 67.349998 65.430000 65.209999 66.080002 67.540001 69.239998 70.089996 70.040001 68.709999 69.230003 71.639999 73.889999 75.500000 76.300003 76.440002 76.330002 75.739998 75.250000 73.949997 72.839996 71.400002 69.320000
82.419998 85.529999 88.580002 90.540001 92.250000 93.209999 93.629997 93.489998 92.900002 91.800003 90.370003 89.300003 88.470001 87.720001 86.809998 86.150002 85.169998 84.019997 82.410004 80.620003 79.320000 78.400002 78.000000 77.779999 77.269997 76.809998 76.690002 76.260002 75.779999 74.839996 72.900002 70.669998 67.639999 65.800003 64.959999 64.610001 65.690002 66.919998 68.050003 68.639999 67.660004 67.440002 69.360001 71.660004 73.559998 74.629997 75.529999 75.300003 74.620003 74.160004 72.349998 70.919998 68.830002 66.400002
82.370003 85.440002 88.370003 90.589996 91.860001 92.800003 93.230003 93.019997 92.470001 91.620003 90.260002 88.959999 88.099998 87.459999 86.830002 86.360001 85.610001 84.529999 83.230003 81.910004 80.519997 79.120003 77.900002 77.620003 77.180000 76.720001 76.120003 75.769997 74.930000 73.629997 71.870003 69.660004 67.639999 66.120003 64.709999 63.910000 64.199997 64.739998 65.849998 66.550003 66.260002 65.559998 67.010002 69.059998 71.489998 72.949997 73.769997 73.519997 72.919998 71.900002 69.830002 67.879997 65.709999 63.119999
82.489998 85.160004 88.300003 90.180000 91.470001 92.330002 92.559998 92.389999 91.820000 90.730003 89.489998 88.239998 87.370003 86.709999 86.209999 86.070000 85.360001 84.680000 83.639999 82.610001 81.459999 80.019997 78.389999 77.410004 77.080002 76.629997 75.989998 76.019997 75.349998 74.489998 73.070000 71.459999 69.239998 67.059998 64.790001 63.689999 63.169998 63.509998 64.070000 64.550003 64.709999 63.849998 65.059998 66.760002 68.900002 70.389999 71.220001 71.160004 70.699997 69.269997 66.980003 64.820000 62.310001 59.139999
82.599998 84.949997 87.709999 89.550003 90.550003 91.260002 91.540001 91.320000 90.800003 89.739998 88.629997 87.489998 86.209999 85.419998 85.300003 85.169998 84.889999 84.589996 84.059998 83.290001 82.220001 81.190002 79.669998 78.010002 77.379997 77.110001 77.550003 77.709999 77.660004 76.690002 75.029999 73.199997 70.800003 68.529999 65.650002 63.430000 62.759998 62.520000 62.660000 63.270000 63.770000 63.660000 63.500000 63.919998 65.430000 66.620003 67.599998 67.879997 66.949997 65.570000 63.049999 60.840000 58.490002 55.779999
82.370003 84.690002 87.300003 88.879997 89.820000 90.239998 90.370003 90.430000 89.750000 88.970001 88.019997 86.970001 85.839996 84.919998 84.440002 84.349998 84.410004 84.440002 84.320000 83.720001 82.980003 81.959999 81.139999 80.269997 79.599998 79.230003 78.989998 78.790001 78.279999 77.379997 75.739998 73.800003 71.410004 68.900002 66.070000 63.410000 62.400002 62.270000 62.080002 62.900002 63.919998 64.050003 62.660000 61.459999 61.900002 62.930000 64.070000 63.840000 63.060001 61.299999 58.959999 57.340000 55.580002 53.529999
81.839996 84.110001 86.660004 88.070000 88.959999 89.389999 89.330002 89.059998 88.730003 88.150002 87.379997 86.370003 85.080002 84.230003 83.480003 83.269997 83.870003 84.220001 84.260002 83.879997 83.410004 82.980003 82.620003 82.209999 81.750000 80.930000 80.180000 79.309998 78.160004 77.260002 75.610001 73.940002 71.309998 68.790001 66.190002 63.639999 61.840000 61.660000 61.860001 62.820000 63.750000 64.050003 62.639999 60.410000 59.000000 58.950001 59.099998 59.180000 58.130001 56.970001 55.310001 53.930000 52.910000 52.070000
80.699997 83.129997 85.910004 87.250000 88.129997 88.379997 88.230003 87.760002 87.370003 86.820000 86.180000 85.410004 84.330002 83.250000 82.660004 82.580002 83.620003 83.610001 84.110001 83.949997 83.720001 83.639999 83.709999 83.440002 82.879997 82.180000 80.940002 79.599998 77.940002 76.820000 74.910004 72.900002 70.680000 68.150002 65.410004 63.290001 61.580002 61.340000 61.770000 62.770000 63.450001 63.020000 61.580002 59.410000 57.930000 56.119999 56.139999 55.610001 54.580002 53.689999 52.740002 52.009998 51.740002 51.750000
78.400002 81.010002 84.610001 86.500000 86.879997 87.099998 86.889999 86.160004 85.690002 85.209999 84.750000 84.080002 83.169998 82.129997 81.540001 81.790001 82.889999 83.190002 83.589996 83.540001 83.730003 83.949997 84.339996 84.309998 83.830002 82.790001 81.080002 79.690002 77.639999 75.760002 73.459999 71.389999 68.790001 66.709999 64.190002 62.459999 61.150002 60.939999 61.560001 62.490002 62.520000 61.459999 59.700001 57.910000 56.560001 55.549999 54.770000 53.740002 52.810001 52.090000 51.810001 51.889999 51.740002 51.820000
76.139999 79.099998 82.459999 84.919998 85.820000 85.709999 85.400002 84.790001 84.029999 83.750000 83.110001 82.739998 81.989998 80.900002 80.180000 80.610001 81.870003 82.570000 82.650002 82.739998 83.260002 83.830002 84.599998 84.930000 84.360001 83.099998 81.330002 79.540001 77.269997 75.059998 72.440002 69.230003 66.580002 64.419998 62.290001 61.110001 60.700001 60.619999 61.290001 61.889999 61.259998 59.860001 57.840000 56.200001 54.700001 54.209999 53.840000 53.160000 52.799999 52.160000 51.990002 51.889999 51.740002 51.779999
73.459999 77.139999 81.099998 83.190002 84.320000 84.190002 83.870003 83.150002 82.400002 81.760002 81.129997 80.820000 80.209999 79.220001 78.540001 78.870003 80.089996 80.680000 80.910004 81.370003 82.370003 83.120003 84.230003 84.570000 84.449997 83.300003 81.570000 79.680000 77.160004 74.480003 71.440002 68.099998 64.209999 61.700001 60.509998 59.939999 59.889999 60.099998 60.880001 61.070000 60.009998 58.270000 56.070000 54.220001 53.250000 53.110001 52.799999 52.599998 52.209999 52.099998 52.029999 51.930000 51.790001 51.779999
71.220001 74.690002 78.830002 81.750000 83.010002 82.980003 82.500000 81.230003 80.470001 79.519997 78.739998 78.410004 78.160004 77.559998 76.769997 77.260002 78.419998 78.839996 78.930000 79.620003 80.500000 81.779999 82.739998 83.900002 83.849998 82.970001 81.440002 79.629997 77.209999 74.480003 71.139999 67.180000 62.509998 60.200001 59.279999 58.910000 59.450001 60.000000 60.470001 60.330002 59.020000 56.900002 54.770000 53.189999 52.919998 52.430000 52.410000 52.240002 52.020000 52.169998 51.709999 51.900002 51.759998 51.779999
69.360001 72.820000 77.070000 80.290001 81.639999 81.489998 80.500000 79.230003 77.739998 76.529999 75.849998 75.449997 75.489998 75.160004 74.660004 75.919998 76.529999 76.410004 76.730003 77.320000 77.839996 79.529999 80.900002 82.220001 82.940002 82.610001 81.239998 79.800003 77.480003 75.139999 71.540001 67.559998 62.060001 59.279999 58.279999 58.340000 59.080002 59.840000 60.090000 59.349998 58.040001 56.040001 54.020000 52.790001 52.700001 52.549999 52.400002 52.230000 52.230000 52.070000 51.849998 51.810001 51.619999 51.630001
67.910004 71.220001 75.410004 78.620003 80.019997 79.839996 78.470001 76.639999 74.889999 73.699997 72.940002 72.699997 72.980003 72.410004 72.449997 73.459999 74.150002 74.389999 74.540001 75.080002 75.739998 76.970001 78.489998 80.169998 81.169998 81.400002 80.750000 79.519997 77.720001 75.480003 72.250000 68.820000 62.360001 59.189999 57.810001 58.450001 58.709999 59.270000 59.349998 58.459999 57.099998 55.480000 53.549999 52.709999 52.470001 52.369999 52.189999 52.189999 52.080002 52.099998 51.779999 51.770000 51.720001 51.549999
67.599998 70.559998 74.139999 77.690002 78.370003 77.050003 75.320000 73.820000 71.889999 70.459999 69.910004 69.879997 69.589996 69.029999 69.889999 70.540001 71.099998 71.660004 72.010002 72.540001 73.339996 74.230003 75.790001 77.470001 79.279999 79.769997 79.680000 79.059998 77.650002 75.830002 73.070000 69.739998 64.410004 60.270000 58.119999 57.610001 57.680000 58.169998 58.009998 57.290001 55.869999 54.650002 53.200001 52.580002 52.430000 52.270000 52.119999 52.099998 51.939999 51.950001 51.830002 51.709999 51.700001 51.610001
67.739998 70.239998 73.519997 76.309998 75.639999 74.250000 73.070000 71.389999 69.589996 67.809998 67.110001 67.290001 67.269997 66.699997 67.360001 67.620003 68.059998 68.709999 69.449997 69.919998 70.809998 71.860001 73.449997 75.300003 77.169998 78.120003 78.489998 78.419998 77.750000 76.169998 74.199997 70.849998 66.919998 62.549999 59.500000 57.630001 57.349998 56.560001 56.680000 55.990002 54.910000 54.139999 53.119999 52.689999 52.459999 52.290001 52.070000 51.939999 51.830002 51.689999 51.709999 51.570000 51.599998 51.529999
68.349998 70.180000 72.660004 73.250000 72.440002 71.879997 70.440002 68.769997 66.870003 65.260002 64.300003 64.519997 65.059998 64.550003 64.910004 65.050003 65.059998 65.510002 66.080002 66.589996 67.900002 69.489998 71.050003 72.800003 74.739998 75.930000 76.940002 77.760002 77.320000 76.599998 75.309998 73.980003 72.019997 69.349998 64.949997 61.860001 58.919998 55.560001 56.189999 55.360001 54.470001 54.070000 53.400002 52.740002 52.400002 52.270000 51.950001 51.680000 51.700001 51.570000 51.549999 51.689999 51.529999 51.419998
68.070000 69.690002 70.209999 70.589996 70.180000 69.230003 67.750000 65.900002 64.150002 62.439999 61.689999 61.970001 61.900002 61.740002 62.150002 62.209999 62.250000 62.540001 62.970001 64.000000 65.279999 66.629997 68.699997 70.760002 72.650002 74.169998 75.419998 76.349998 76.879997 76.980003 76.379997 75.580002 74.300003 72.650002 70.239998 66.959999 63.029999 59.610001 56.049999 54.360001 54.099998 53.759998 53.200001 52.689999 52.349998 52.099998 51.840000 51.610001 51.299999 51.340000 51.500000 51.490002 51.410000 51.240002
66.620003 67.500000 67.639999 67.879997 68.040001 67.239998 64.980003 62.880001 61.049999 59.840000 59.570000 59.119999 59.080002 59.369999 59.259998 59.369999 59.169998 59.150002 59.849998 60.619999 61.799999 63.419998 65.889999 67.980003 70.099998 71.959999 73.419998 74.529999 75.680000 76.459999 76.860001 76.589996 75.820000 74.320000 71.809998 69.169998 65.459999 61.330002 58.220001 55.750000 53.930000 52.799999 52.330002 52.459999 52.200001 51.880001 51.549999 51.369999 51.009998 50.910000 50.939999 51.139999 51.049999 51.279999
64.089996 65.290001 64.089996 63.980000 64.489998 64.300003 62.020000 60.299999 58.799999 57.930000 57.799999 57.330002 57.299999 57.619999 57.570000 57.130001 57.029999 56.779999 57.139999 57.770000 58.610001 60.340000 62.630001 64.870003 67.660004 69.349998 71.099998 72.419998 73.820000 75.050003 76.260002 76.660004 76.379997 74.820000 72.559998 69.860001 66.629997 62.290001 58.900002 56.240002 54.509998 53.650002 52.889999 52.470001 52.119999 51.689999 50.950001 51.480000 50.580002 50.320000 50.529999 50.910000 51.020000 51.270000
60.009998 60.410000 60.080002 59.009998 58.070000 57.700001 58.070000 57.090000 56.639999 56.040001 56.349998 56.590000 56.119999 56.259998 56.639999 56.270000 56.160000 55.880001 55.810001 55.980000 56.439999 57.950001 59.880001 61.700001 64.120003 66.330002 68.220001 69.349998 71.309998 72.889999 74.669998 75.720001 76.129997 75.029999 72.680000 69.919998 66.470001 62.630001 58.959999 56.580002 54.799999 54.119999 53.259998 52.650002 52.180000 51.830002 51.570000 51.150002 50.529999 50.209999 49.639999 50.570000 51.139999 51.320000
57.209999 56.520000 56.080002 56.419998 56.090000 55.930000 55.580002 54.930000 54.930000 54.820000 54.930000 55.240002 55.330002 55.650002 56.130001 56.090000 55.959999 55.840000 55.669998 55.669998 55.939999 56.660000 57.849998 59.080002 61.459999 63.310001 65.239998 66.639999 68.510002 70.769997 72.900002 74.379997 75.389999 74.949997 72.699997 70.019997 66.220001 62.570000 58.490002 56.189999 54.930000 54.299999 53.650002 52.889999 52.500000 52.180000 51.480000 51.259998 51.060001 50.520000 49.869999 49.840000 50.250000 50.360001
55.570000 55.099998 54.220001 54.580002 54.939999 54.619999 52.009998 49.619999 52.180000 53.689999 53.230000 53.919998 54.279999 55.189999 55.500000 55.810001 55.830002 55.750000 55.700001 55.570000 55.570000 55.910000 56.509998 57.220001 58.680000 60.220001 61.970001 63.459999 65.949997 68.010002 70.650002 72.510002 73.769997 74.059998 72.480003 69.870003 66.269997 62.410000 58.130001 55.810001 54.700001 54.200001 53.520000 52.919998 52.459999 52.139999 51.540001 51.369999 51.240002 50.759998 49.009998 48.529999 49.389999 48.290001
55.230000 54.430000 53.560001 50.740002 50.419998 52.169998 50.790001 52.570000 51.360001 51.090000 50.259998 50.189999 51.480000 54.750000 55.169998 55.520000 55.580002 55.590000 55.590000 55.419998 55.320000 55.250000 55.520000 55.849998 56.650002 57.910000 60.240002 61.599998 63.209999 65.680000 68.400002 70.589996 72.360001 73.000000 71.970001 69.570000 66.330002 62.540001 57.860001 55.119999 54.150002 53.900002 53.169998 52.410000 51.939999 51.570000 51.119999 50.840000 50.799999 50.299999 47.930000 46.430000 47.549999 47.869999