ncols         78
nrows         115
xllcorner     624800
yllcorner     5172700
cellsize      100.000000
NODATA_value  -9999.0
-9999.0 -9999.0 -9999.0 -9999.0 -9999.0 -9999.0 -9999.0 -9999.0 -9999.0 -9999.0 -9999.0 -9999.0 -9999.0 -9999.0 -9999.0 -9999.0 -9999.0 -9999.0 -9999.0 -9999.0 -9999.0 -9999.0 -9999.0 -9999.0 -9999.0 -9999.0 -9999.0 -9999.0 -9999.0 -9999.0 -9999.0 -9999.0 -9999.0 -9999.0 -9999.0 -9999.0 -9999.0 -9999.0 -9999.0 -9999.0 -9999.0 -9999.0 -9999.0 -9999.0 -9999.0 -9999.0 -9999.0 -9999.0 -9999.0 -9999.0 -9999.0 -9999.0 3349.000000 3292.000000 3225.000000 3198.000000 3188.000000 3175.000000 3203.000000 3224.000000 3288.000000 3338.000000 3349.000000 3422.000000 3441.000000 3441.000000 3455.000000 3585.000000 3652.000000 -9999.0 -9999.0 -9999.0 -9999.0 -9999.0 -9999.0 -9999.0 -9999.0 -9999.0
-9999.0 -9999.0 -9999.0 -9999.0 -9999.0 -9999.0 -9999.0 -9999.0 -9999.0 -9999.0 -9999.0 -9999.0 -9999.0 -9999.0 -9999.0 -9999.0 -9999.0 -9999.0 -9999.0 -9999.0 -9999.0 -9999.0 -9999.0 -9999.0 -9999.0 -9999.0 -9999.0 -9999.0 -9999.0 -9999.0 -9999.0 -9999.0 -9999.0 -9999.0 -9999.0 -9999.0 -9999.0 -9999.0 -9999.0 -9999.0 -9999.0 -9999.0 -9999.0 -9999.0 -9999.0 -9999.0 -9999.0 -9999.0 -9999.0 3410.000000 3373.000000 3328.000000 3278.000000 3249.000000 3212.000000 3191.000000 3155.000000 3149.000000 3170.000000 3183.000000 3254.000000 3297.000000 3325.000000 3411.000000 3424.000000 3430.000000 3431.000000 3534.000000 3600.000000 -9999.0 -9999.0 -9999.0 -9999.0 -9999.0 -9999.0 -9999.0 -9999.0 -9999.0
-9999.0 -9999.0 -9999.0 -9999.0 -9999.0 -9999.0 -9999.0 -9999.0 -9999.0 -9999.0 -9999.0 -9999.0 -9999.0 -9999.0 -9999.0 -9999.0 -9999.0 -9999.0 -9999.0 -9999.0 -9999.0 -9999.0 -9999.0 -9999.0 -9999.0 -9999.0 -9999.0 -9999.0 -9999.0 -9999.0 -9999.0 -9999.0 -9999.0 -9999.0 -9999.0 -9999.0 -9999.0 -9999.0 -9999.0 -9999.0 -9999.0 -9999.0 -9999.0 -9999.0 -9999.0 -9999.0 -9999.0 -9999.0 -9999.0 3378.000000 3325.000000 3254.000000 3205.000000 3192.000000 3205.000000 3170.000000 3137.000000 3141.000000 3162.000000 3173.000000 3241.000000 3277.000000 3319.000000 3387.000000 3410.000000 3418.000000 3422.000000 3505.000000 3582.000000 -9999.0 -9999.0 -9999.0 -9999.0 -9999.0 -9999.0 -9999.0 -9999.0 -9999.0
-9999.0 -9999.0 -9999.0 -9999.0 -9999.0 -9999.0 -9999.0 -9999.0 -9999.0 -9999.0 -9999.0 -9999.0 -9999.0 -9999.0 -9999.0 -9999.0 -9999.0 -9999.0 -9999.0 -9999.0 -9999.0 -9999.0 -9999.0 -9999.0 -9999.0 -9999.0 -9999.0 -9999.0 -9999.0 -9999.0 -9999.0 -9999.0 -9999.0 -9999.0 -9999.0 -9999.0 -9999.0 -9999.0 -9999.0 -9999.0 -9999.0 -9999.0 -9999.0 -9999.0 -9999.0 -9999.0 3376.000000 3362.000000 3378.000000 3350.000000 3290.000000 3161.000000 3108.000000 3093.000000 3099.000000 3112.000000 3095.000000 3123.000000 3148.000000 3163.000000 3235.000000 3289.000000 3316.000000 3362.000000 3390.000000 3403.000000 3421.000000 3496.000000 3570.000000 3677.000000 -9999.0 -9999.0 -9999.0 -9999.0 -9999.0 -9999.0 -9999.0 -9999.0
-9999.0 -9999.0 -9999.0 -9999.0 -9999.0 -9999.0 -9999.0 -9999.0 -9999.0 -9999.0 -9999.0 -9999.0 -9999.0 -9999.0 -9999.0 -9999.0 -9999.0 -9999.0 -9999.0 -9999.0 -9999.0 -9999.0 -9999.0 -9999.0 -9999.0 -9999.0 -9999.0 -9999.0 -9999.0 -9999.0 -9999.0 -9999.0 -9999.0 -9999.0 -9999.0 -9999.0 -9999.0 -9999.0 -9999.0 -9999.0 -9999.0 -9999.0 -9999.0 -9999.0 -9999.0 -9999.0 3286.000000 3268.000000 3255.000000 3244.000000 3213.000000 3096.000000 3008.000000 2997.000000 2995.000000 3029.000000 3036.000000 3084.000000 3126.000000 3152.000000 3224.000000 3285.000000 3308.000000 3347.000000 3382.000000 3400.000000 3424.000000 3506.000000 3543.000000 3617.000000 -9999.0 -9999.0 -9999.0 -9999.0 -9999.0 -9999.0 -9999.0 -9999.0
-9999.0 -9999.0 -9999.0 -9999.0 -9999.0 -9999.0 -9999.0 -9999.0 -9999.0 -9999.0 -9999.0 -9999.0 -9999.0 -9999.0 -9999.0 -9999.0 -9999.0 -9999.0 -9999.0 -9999.0 -9999.0 -9999.0 -9999.0 -9999.0 -9999.0 -9999.0 -9999.0 -9999.0 -9999.0 -9999.0 -9999.0 -9999.0 -9999.0 -9999.0 -9999.0 -9999.0 -9999.0 -9999.0 -9999.0 -9999.0 -9999.0 -9999.0 -9999.0 -9999.0 -9999.0 3322.000000 3227.000000 3204.000000 3200.000000 3207.000000 3165.000000 3047.000000 2995.000000 2984.000000 2973.000000 2990.000000 3004.000000 3046.000000 3102.000000 3172.000000 3207.000000 3261.000000 3289.000000 3340.000000 3378.000000 3398.000000 3424.000000 3487.000000 3509.000000 3571.000000 -9999.0 -9999.0 -9999.0 -9999.0 -9999.0 -9999.0 -9999.0 -9999.0
-9999.0 -9999.0 -9999.0 -9999.0 -9999.0 -9999.0 -9999.0 -9999.0 -9999.0 -9999.0 -9999.0 -9999.0 -9999.0 -9999.0 -9999.0 -9999.0 -9999.0 -9999.0 -9999.0 -9999.0 -9999.0 -9999.0 -9999.0 -9999.0 -9999.0 -9999.0 -9999.0 -9999.0 -9999.0 -9999.0 -9999.0 -9999.0 -9999.0 -9999.0 -9999.0 -9999.0 -9999.0 -9999.0 -9999.0 3314.000000 -9999.0 -9999.0 -9999.0 3296.000000 3272.000000 3208.000000 3095.000000 3090.000000 3112.000000 3137.000000 3107.000000 3029.000000 2964.000000 2951.000000 2938.000000 2934.000000 2944.000000 2962.000000 3072.000000 3103.000000 3158.000000 3198.000000 3220.000000 3304.000000 3356.000000 3388.000000 3432.000000 3463.000000 3471.000000 3481.000000 3534.000000 -9999.0 -9999.0 -9999.0 -9999.0 -9999.0 -9999.0 -9999.0
-9999.0 -9999.0 -9999.0 -9999.0 -9999.0 -9999.0 -9999.0 -9999.0 -9999.0 -9999.0 -9999.0 -9999.0 -9999.0 -9999.0 -9999.0 -9999.0 -9999.0 -9999.0 -9999.0 -9999.0 -9999.0 -9999.0 -9999.0 -9999.0 -9999.0 -9999.0 -9999.0 -9999.0 -9999.0 -9999.0 -9999.0 -9999.0 -9999.0 -9999.0 -9999.0 -9999.0 -9999.0 -9999.0 -9999.0 3256.000000 3262.000000 3298.000000 3255.000000 3184.000000 3147.000000 3086.000000 3025.000000 3013.000000 3030.000000 3087.000000 3065.000000 3002.000000 2938.000000 2921.000000 2912.000000 2907.000000 2908.000000 2919.000000 2990.000000 3057.000000 3092.000000 3123.000000 3139.000000 3220.000000 3308.000000 3352.000000 3401.000000 3445.000000 3455.000000 3464.000000 -9999.0 -9999.0 -9999.0 -9999.0 -9999.0 -9999.0 -9999.0 -9999.0
-9999.0 -9999.0 -9999.0 -9999.0 -9999.0 -9999.0 -9999.0 -9999.0 -9999.0 -9999.0 -9999.0 -9999.0 -9999.0 -9999.0 -9999.0 -9999.0 -9999.0 -9999.0 -9999.0 -9999.0 -9999.0 -9999.0 -9999.0 -9999.0 -9999.0 -9999.0 -9999.0 -9999.0 -9999.0 -9999.0 -9999.0 -9999.0 -9999.0 -9999.0 -9999.0 -9999.0 -9999.0 -9999.0 -9999.0 3225.000000 3248.000000 3237.000000 3206.000000 3158.000000 3135.000000 3069.000000 3004.000000 2992.000000 2988.000000 3041.000000 3062.000000 2990.000000 2935.000000 2921.000000 2899.000000 2893.000000 2895.000000 2898.000000 2923.000000 3015.000000 3052.000000 3094.000000 3122.000000 3217.000000 3308.000000 3333.000000 3385.000000 3441.000000 3446.000000 3458.000000 3449.000000 -9999.0 -9999.0 -9999.0 -9999.0 -9999.0 -9999.0 -9999.0
-9999.0 -9999.0 -9999.0 -9999.0 -9999.0 -9999.0 -9999.0 -9999.0 -9999.0 -9999.0 -9999.0 -9999.0 -9999.0 -9999.0 -9999.0 -9999.0 -9999.0 -9999.0 -9999.0 -9999.0 -9999.0 -9999.0 -9999.0 -9999.0 -9999.0 -9999.0 -9999.0 -9999.0 -9999.0 -9999.0 -9999.0 -9999.0 -9999.0 -9999.0 -9999.0 -9999.0 -9999.0 -9999.0 3186.000000 3194.000000 3202.000000 3199.000000 3187.000000 3121.000000 3093.000000 3032.000000 2970.000000 2953.000000 2938.000000 2937.000000 3009.000000 3007.000000 2970.000000 2938.000000 2889.000000 2874.000000 2864.000000 2860.000000 2893.000000 2919.000000 2993.000000 3048.000000 3082.000000 3229.000000 3325.000000 3350.000000 3383.000000 3396.000000 3401.000000 3426.000000 3446.000000 3451.000000 -9999.0 -9999.0 -9999.0 -9999.0 -9999.0 -9999.0
-9999.0 -9999.0 -9999.0 -9999.0 -9999.0 -9999.0 -9999.0 -9999.0 -9999.0 -9999.0 -9999.0 -9999.0 -9999.0 -9999.0 -9999.0 -9999.0 -9999.0 -9999.0 -9999.0 -9999.0 -9999.0 -9999.0 -9999.0 -9999.0 -9999.0 -9999.0 -9999.0 -9999.0 -9999.0 -9999.0 -9999.0 -9999.0 -9999.0 -9999.0 -9999.0 -9999.0 -9999.0 -9999.0 3186.000000 3185.000000 3156.000000 3122.000000 3093.000000 3073.000000 3047.000000 2991.000000 2937.000000 2919.000000 2906.000000 2888.000000 2893.000000 2972.000000 2956.000000 2945.000000 2899.000000 2851.000000 2844.000000 2862.000000 2893.000000 2909.000000 2961.000000 3078.000000 3121.000000 3305.000000 3390.000000 3429.000000 3345.000000 3357.000000 3359.000000 3370.000000 3414.000000 3405.000000 -9999.0 -9999.0 -9999.0 -9999.0 -9999.0 -9999.0
-9999.0 -9999.0 -9999.0 -9999.0 -9999.0 -9999.0 -9999.0 -9999.0 -9999.0 -9999.0 -9999.0 -9999.0 -9999.0 -9999.0 -9999.0 -9999.0 -9999.0 -9999.0 -9999.0 -9999.0 -9999.0 -9999.0 -9999.0 -9999.0 -9999.0 -9999.0 -9999.0 -9999.0 -9999.0 -9999.0 -9999.0 -9999.0 -9999.0 -9999.0 -9999.0 -9999.0 -9999.0 -9999.0 3186.000000 3164.000000 3113.000000 3080.000000 3043.000000 3035.000000 3012.000000 2981.000000 2929.000000 2901.000000 2892.000000 2881.000000 2875.000000 2947.000000 2946.000000 2944.000000 2895.000000 2843.000000 2834.000000 2859.000000 2886.000000 2898.000000 2966.000000 3125.000000 3193.000000 3294.000000 3363.000000 3367.000000 3328.000000 3339.000000 3340.000000 3335.000000 3391.000000 3391.000000 3486.000000 -9999.0 -9999.0 -9999.0 -9999.0 -9999.0
-9999.0 -9999.0 -9999.0 -9999.0 -9999.0 -9999.0 -9999.0 -9999.0 -9999.0 -9999.0 -9999.0 -9999.0 -9999.0 -9999.0 -9999.0 -9999.0 -9999.0 -9999.0 -9999.0 -9999.0 -9999.0 -9999.0 -9999.0 -9999.0 -9999.0 -9999.0 -9999.0 -9999.0 -9999.0 -9999.0 -9999.0 -9999.0 -9999.0 -9999.0 -9999.0 -9999.0 -9999.0 3189.000000 3182.000000 3126.000000 3048.000000 3011.000000 2969.000000 2956.000000 2932.000000 2899.000000 2911.000000 2878.000000 2865.000000 2856.000000 2846.000000 2829.000000 2904.000000 2906.000000 2870.000000 2833.000000 2819.000000 2836.000000 2850.000000 2852.000000 2944.000000 3096.000000 3142.000000 3206.000000 3353.000000 3278.000000 3283.000000 3296.000000 3298.000000 3299.000000 3318.000000 3335.000000 3399.000000 -9999.0 -9999.0 -9999.0 -9999.0 -9999.0
-9999.0 -9999.0 -9999.0 -9999.0 -9999.0 -9999.0 -9999.0 -9999.0 -9999.0 -9999.0 -9999.0 -9999.0 -9999.0 -9999.0 -9999.0 -9999.0 -9999.0 -9999.0 -9999.0 -9999.0 -9999.0 -9999.0 -9999.0 -9999.0 -9999.0 -9999.0 -9999.0 -9999.0 -9999.0 -9999.0 -9999.0 -9999.0 -9999.0 -9999.0 -9999.0 -9999.0 -9999.0 3207.000000 3178.000000 3087.000000 3018.000000 2987.000000 2909.000000 2876.000000 2851.000000 2822.000000 2818.000000 2823.000000 2840.000000 2818.000000 2811.000000 2825.000000 2853.000000 2854.000000 2842.000000 2819.000000 2820.000000 2824.000000 2836.000000 2845.000000 2904.000000 3020.000000 3052.000000 3180.000000 3262.000000 3226.000000 3249.000000 3266.000000 3268.000000 3270.000000 3284.000000 3296.000000 3313.000000 -9999.0 -9999.0 -9999.0 -9999.0 -9999.0
-9999.0 -9999.0 -9999.0 -9999.0 -9999.0 -9999.0 -9999.0 -9999.0 -9999.0 -9999.0 -9999.0 -9999.0 -9999.0 -9999.0 -9999.0 -9999.0 -9999.0 -9999.0 -9999.0 -9999.0 -9999.0 -9999.0 -9999.0 -9999.0 -9999.0 -9999.0 -9999.0 -9999.0 -9999.0 -9999.0 -9999.0 -9999.0 -9999.0 -9999.0 -9999.0 -9999.0 -9999.0 3188.000000 3163.000000 3087.000000 3011.000000 2975.000000 2893.000000 2844.000000 2821.000000 2792.000000 2775.000000 2785.000000 2808.000000 2781.000000 2793.000000 2828.000000 2845.000000 2840.000000 2832.000000 2817.000000 2824.000000 2830.000000 2839.000000 2848.000000 2895.000000 2992.000000 3049.000000 3118.000000 3220.000000 3208.000000 3229.000000 3251.000000 3259.000000 3260.000000 3271.000000 3283.000000 3286.000000 -9999.0 -9999.0 -9999.0 -9999.0 -9999.0
-9999.0 -9999.0 -9999.0 -9999.0 -9999.0 -9999.0 -9999.0 -9999.0 -9999.0 -9999.0 -9999.0 -9999.0 -9999.0 -9999.0 -9999.0 -9999.0 -9999.0 -9999.0 -9999.0 -9999.0 -9999.0 -9999.0 -9999.0 -9999.0 -9999.0 -9999.0 -9999.0 -9999.0 -9999.0 -9999.0 -9999.0 -9999.0 -9999.0 -9999.0 -9999.0 -9999.0 3277.000000 3190.000000 3158.000000 3076.000000 3001.000000 2961.000000 2890.000000 2806.000000 2784.000000 2752.000000 2714.000000 2712.000000 2722.000000 2727.000000 2750.000000 2801.000000 2819.000000 2835.000000 2820.000000 2820.000000 2827.000000 2836.000000 2854.000000 2866.000000 2877.000000 3001.000000 3066.000000 3048.000000 3132.000000 3147.000000 3170.000000 3207.000000 3225.000000 3231.000000 3241.000000 3258.000000 3284.000000 -9999.0 -9999.0 -9999.0 -9999.0 -9999.0
-9999.0 -9999.0 -9999.0 -9999.0 -9999.0 -9999.0 -9999.0 -9999.0 -9999.0 -9999.0 -9999.0 -9999.0 -9999.0 -9999.0 -9999.0 -9999.0 -9999.0 -9999.0 -9999.0 -9999.0 -9999.0 -9999.0 -9999.0 -9999.0 -9999.0 -9999.0 -9999.0 -9999.0 -9999.0 -9999.0 3357.000000 3334.000000 3329.000000 3311.000000 3341.000000 3309.000000 3237.000000 3152.000000 3119.000000 3055.000000 2976.000000 2946.000000 2860.000000 2793.000000 2768.000000 2724.000000 2686.000000 2676.000000 2670.000000 2673.000000 2712.000000 2767.000000 2749.000000 2775.000000 2820.000000 2821.000000 2825.000000 2833.000000 2867.000000 2888.000000 2934.000000 2972.000000 2999.000000 3031.000000 3053.000000 3068.000000 3100.000000 3153.000000 3176.000000 3190.000000 3189.000000 3201.000000 3244.000000 -9999.0 -9999.0 -9999.0 -9999.0 -9999.0
-9999.0 -9999.0 -9999.0 -9999.0 -9999.0 -9999.0 -9999.0 -9999.0 -9999.0 -9999.0 -9999.0 -9999.0 -9999.0 -9999.0 -9999.0 -9999.0 -9999.0 -9999.0 -9999.0 -9999.0 -9999.0 -9999.0 -9999.0 -9999.0 -9999.0 -9999.0 -9999.0 -9999.0 -9999.0 3371.000000 3308.000000 3282.000000 3285.000000 3263.000000 3290.000000 3279.000000 3217.000000 3123.000000 3104.000000 3048.000000 2963.000000 2933.000000 2850.000000 2776.000000 2764.000000 2710.000000 2673.000000 2664.000000 2638.000000 2668.000000 2703.000000 2719.000000 2719.000000 2765.000000 2795.000000 2816.000000 2819.000000 2830.000000 2871.000000 2894.000000 2944.000000 2984.000000 3003.000000 3029.000000 3055.000000 3067.000000 3093.000000 3123.000000 3144.000000 3170.000000 3182.000000 3190.000000 3233.000000 -9999.0 -9999.0 -9999.0 -9999.0 -9999.0
-9999.0 -9999.0 -9999.0 -9999.0 -9999.0 -9999.0 -9999.0 -9999.0 -9999.0 -9999.0 -9999.0 -9999.0 -9999.0 -9999.0 -9999.0 -9999.0 -9999.0 -9999.0 -9999.0 -9999.0 -9999.0 -9999.0 -9999.0 -9999.0 -9999.0 -9999.0 -9999.0 -9999.0 -9999.0 -9999.0 3267.000000 3222.000000 3201.000000 3174.000000 3180.000000 3203.000000 3172.000000 3087.000000 3054.000000 2977.000000 2944.000000 2953.000000 2826.000000 2750.000000 2732.000000 2692.000000 2653.000000 2632.000000 2591.000000 2651.000000 2675.000000 2667.000000 2733.000000 2748.000000 2775.000000 2798.000000 2803.000000 2823.000000 2876.000000 2901.000000 2949.000000 2983.000000 3004.000000 3039.000000 3067.000000 3075.000000 3092.000000 3113.000000 3123.000000 3149.000000 3172.000000 3185.000000 3234.000000 -9999.0 -9999.0 -9999.0 -9999.0 -9999.0
-9999.0 -9999.0 -9999.0 -9999.0 -9999.0 -9999.0 -9999.0 -9999.0 -9999.0 -9999.0 -9999.0 -9999.0 -9999.0 -9999.0 -9999.0 -9999.0 -9999.0 -9999.0 -9999.0 -9999.0 -9999.0 -9999.0 -9999.0 -9999.0 -9999.0 -9999.0 -9999.0 -9999.0 -9999.0 -9999.0 -9999.0 3192.000000 3158.000000 3120.000000 3111.000000 3116.000000 3131.000000 3046.000000 3000.000000 2928.000000 2876.000000 2869.000000 2832.000000 2737.000000 2707.000000 2666.000000 2606.000000 2580.000000 2574.000000 2574.000000 2598.000000 2651.000000 2722.000000 2718.000000 2734.000000 2784.000000 2809.000000 2840.000000 2882.000000 2912.000000 2952.000000 2989.000000 3010.000000 3050.000000 3077.000000 3082.000000 3101.000000 3120.000000 3131.000000 3158.000000 3190.000000 3208.000000 3249.000000 -9999.0 -9999.0 -9999.0 -9999.0 -9999.0
-9999.0 -9999.0 -9999.0 -9999.0 -9999.0 -9999.0 -9999.0 -9999.0 -9999.0 -9999.0 -9999.0 -9999.0 -9999.0 -9999.0 -9999.0 -9999.0 -9999.0 -9999.0 -9999.0 -9999.0 -9999.0 -9999.0 -9999.0 -9999.0 -9999.0 -9999.0 -9999.0 -9999.0 -9999.0 -9999.0 -9999.0 3174.000000 3119.000000 3104.000000 3090.000000 3089.000000 3138.000000 3044.000000 3001.000000 2917.000000 2863.000000 2842.000000 2824.000000 2728.000000 2693.000000 2649.000000 2583.000000 2562.000000 2559.000000 2542.000000 2558.000000 2641.000000 2703.000000 2695.000000 2780.000000 2810.000000 2823.000000 2851.000000 2891.000000 2908.000000 2940.000000 2997.000000 3018.000000 3061.000000 3087.000000 3093.000000 3113.000000 3130.000000 3138.000000 3167.000000 3206.000000 3223.000000 3278.000000 -9999.0 -9999.0 -9999.0 -9999.0 -9999.0
-9999.0 -9999.0 -9999.0 -9999.0 -9999.0 -9999.0 -9999.0 -9999.0 -9999.0 -9999.0 -9999.0 -9999.0 -9999.0 -9999.0 -9999.0 -9999.0 -9999.0 -9999.0 -9999.0 -9999.0 -9999.0 -9999.0 -9999.0 -9999.0 -9999.0 -9999.0 -9999.0 -9999.0 -9999.0 -9999.0 -9999.0 3105.000000 3055.000000 3040.000000 3044.000000 3026.000000 3074.000000 3059.000000 3009.000000 2918.000000 2841.000000 2817.000000 2781.000000 2717.000000 2674.000000 2591.000000 2521.000000 2515.000000 2518.000000 2514.000000 2526.000000 2625.000000 2641.000000 2719.000000 2768.000000 2815.000000 2841.000000 2882.000000 2883.000000 2894.000000 2932.000000 2991.000000 3031.000000 3134.000000 3141.000000 3147.000000 3179.000000 3181.000000 3186.000000 3221.000000 3269.000000 3295.000000 3345.000000 -9999.0 -9999.0 -9999.0 -9999.0 -9999.0
-9999.0 -9999.0 -9999.0 -9999.0 -9999.0 -9999.0 -9999.0 -9999.0 -9999.0 -9999.0 -9999.0 -9999.0 -9999.0 -9999.0 -9999.0 -9999.0 -9999.0 -9999.0 -9999.0 -9999.0 -9999.0 -9999.0 -9999.0 -9999.0 -9999.0 -9999.0 -9999.0 -9999.0 -9999.0 -9999.0 -9999.0 3115.000000 3032.000000 2992.000000 2964.000000 2949.000000 2996.000000 3015.000000 3003.000000 2999.000000 2868.000000 2835.000000 2735.000000 2671.000000 2635.000000 2560.000000 2489.000000 2481.000000 2484.000000 2529.000000 2550.000000 2595.000000 2692.000000 2709.000000 2751.000000 2817.000000 2849.000000 2910.000000 2934.000000 2941.000000 2969.000000 3018.000000 3051.000000 3166.000000 3230.000000 3243.000000 3265.000000 3254.000000 3251.000000 3297.000000 3326.000000 3299.000000 3318.000000 -9999.0 -9999.0 -9999.0 -9999.0 -9999.0
-9999.0 -9999.0 -9999.0 -9999.0 -9999.0 -9999.0 -9999.0 -9999.0 -9999.0 -9999.0 -9999.0 -9999.0 -9999.0 -9999.0 -9999.0 -9999.0 -9999.0 -9999.0 -9999.0 -9999.0 -9999.0 -9999.0 -9999.0 -9999.0 -9999.0 -9999.0 -9999.0 -9999.0 -9999.0 -9999.0 -9999.0 3092.000000 3043.000000 2981.000000 2954.000000 2928.000000 2943.000000 2966.000000 2959.000000 2952.000000 2884.000000 2825.000000 2736.000000 2641.000000 2611.000000 2542.000000 2476.000000 2458.000000 2470.000000 2557.000000 2596.000000 2622.000000 2675.000000 2699.000000 2779.000000 2838.000000 2874.000000 2930.000000 2968.000000 2977.000000 2994.000000 3046.000000 3080.000000 3180.000000 3259.000000 3273.000000 3224.000000 3195.000000 3237.000000 3252.000000 3260.000000 3247.000000 3266.000000 -9999.0 -9999.0 -9999.0 -9999.0 -9999.0
-9999.0 -9999.0 -9999.0 -9999.0 -9999.0 -9999.0 -9999.0 -9999.0 -9999.0 -9999.0 -9999.0 -9999.0 -9999.0 -9999.0 -9999.0 -9999.0 -9999.0 -9999.0 -9999.0 -9999.0 -9999.0 -9999.0 -9999.0 -9999.0 -9999.0 -9999.0 -9999.0 -9999.0 -9999.0 -9999.0 -9999.0 3094.000000 3040.000000 2956.000000 2904.000000 2885.000000 2865.000000 2869.000000 2878.000000 2841.000000 2885.000000 2845.000000 2718.000000 2617.000000 2583.000000 2496.000000 2440.000000 2425.000000 2441.000000 2582.000000 2630.000000 2669.000000 2716.000000 2734.000000 2784.000000 2852.000000 2885.000000 2959.000000 2989.000000 3006.000000 3086.000000 3130.000000 3164.000000 3196.000000 3146.000000 3171.000000 3148.000000 3117.000000 3124.000000 3190.000000 3165.000000 3166.000000 3188.000000 3271.000000 -9999.0 -9999.0 -9999.0 -9999.0
-9999.0 -9999.0 -9999.0 -9999.0 -9999.0 -9999.0 -9999.0 -9999.0 -9999.0 -9999.0 -9999.0 -9999.0 -9999.0 -9999.0 -9999.0 -9999.0 -9999.0 -9999.0 -9999.0 -9999.0 -9999.0 -9999.0 -9999.0 -9999.0 -9999.0 -9999.0 -9999.0 -9999.0 -9999.0 -9999.0 3244.000000 3124.000000 3066.000000 2969.000000 2892.000000 2862.000000 2848.000000 2809.000000 2796.000000 2806.000000 2797.000000 2780.000000 2692.000000 2594.000000 2560.000000 2462.000000 2416.000000 2409.000000 2430.000000 2568.000000 2594.000000 2717.000000 2785.000000 2812.000000 2844.000000 2895.000000 2932.000000 3004.000000 3050.000000 3072.000000 3123.000000 3131.000000 3132.000000 3152.000000 3106.000000 3094.000000 3136.000000 3080.000000 3077.000000 3105.000000 3136.000000 3142.000000 3178.000000 3282.000000 3344.000000 -9999.0 -9999.0 -9999.0
-9999.0 -9999.0 -9999.0 -9999.0 -9999.0 -9999.0 -9999.0 -9999.0 -9999.0 -9999.0 -9999.0 -9999.0 -9999.0 -9999.0 -9999.0 -9999.0 -9999.0 -9999.0 -9999.0 -9999.0 -9999.0 -9999.0 -9999.0 -9999.0 -9999.0 -9999.0 -9999.0 -9999.0 -9999.0 -9999.0 3224.000000 3148.000000 3074.000000 2978.000000 2900.000000 2867.000000 2838.000000 2812.000000 2782.000000 2770.000000 2756.000000 2746.000000 2682.000000 2584.000000 2545.000000 2451.000000 2405.000000 2402.000000 2427.000000 2519.000000 2619.000000 2759.000000 2785.000000 2819.000000 2876.000000 2928.000000 2961.000000 2995.000000 3058.000000 3085.000000 3136.000000 3087.000000 3084.000000 3119.000000 3091.000000 3075.000000 3118.000000 3065.000000 3062.000000 3087.000000 3126.000000 3131.000000 3189.000000 3312.000000 3359.000000 -9999.0 -9999.0 -9999.0
-9999.0 -9999.0 -9999.0 -9999.0 -9999.0 -9999.0 -9999.0 -9999.0 -9999.0 -9999.0 -9999.0 -9999.0 -9999.0 -9999.0 -9999.0 -9999.0 -9999.0 -9999.0 -9999.0 -9999.0 -9999.0 -9999.0 -9999.0 -9999.0 -9999.0 -9999.0 -9999.0 3271.000000 3202.000000 3215.000000 3202.000000 3107.000000 3073.000000 3010.000000 2913.000000 2862.000000 2818.000000 2782.000000 2762.000000 2744.000000 2729.000000 2698.000000 2667.000000 2597.000000 2553.000000 2449.000000 2394.000000 2393.000000 2403.000000 2481.000000 2561.000000 2686.000000 2782.000000 2811.000000 2878.000000 2961.000000 2998.000000 2983.000000 3061.000000 3106.000000 3096.000000 3038.000000 3020.000000 3011.000000 3045.000000 3039.000000 3074.000000 3025.000000 3040.000000 3065.000000 3098.000000 3114.000000 3212.000000 3363.000000 3421.000000 -9999.0 -9999.0 -9999.0
-9999.0 -9999.0 -9999.0 -9999.0 -9999.0 -9999.0 -9999.0 -9999.0 -9999.0 -9999.0 -9999.0 -9999.0 -9999.0 -9999.0 -9999.0 -9999.0 -9999.0 -9999.0 -9999.0 -9999.0 -9999.0 -9999.0 -9999.0 -9999.0 -9999.0 -9999.0 -9999.0 3241.000000 3149.000000 3140.000000 3179.000000 3075.000000 3030.000000 2952.000000 2880.000000 2850.000000 2802.000000 2732.000000 2710.000000 2679.000000 2668.000000 2666.000000 2664.000000 2596.000000 2554.000000 2465.000000 2398.000000 2387.000000 2395.000000 2455.000000 2502.000000 2597.000000 2708.000000 2760.000000 2897.000000 2962.000000 2987.000000 2985.000000 2993.000000 3006.000000 3041.000000 3042.000000 3031.000000 2968.000000 2963.000000 2982.000000 2994.000000 3003.000000 3020.000000 3052.000000 3089.000000 3127.000000 3254.000000 -9999.0 -9999.0 -9999.0 -9999.0 -9999.0
-9999.0 -9999.0 -9999.0 -9999.0 -9999.0 -9999.0 -9999.0 -9999.0 -9999.0 -9999.0 -9999.0 -9999.0 -9999.0 -9999.0 -9999.0 -9999.0 -9999.0 -9999.0 -9999.0 -9999.0 -9999.0 -9999.0 -9999.0 -9999.0 -9999.0 -9999.0 -9999.0 3226.000000 3132.000000 3120.000000 3145.000000 3075.000000 3017.000000 2937.000000 2863.000000 2844.000000 2800.000000 2735.000000 2712.000000 2674.000000 2646.000000 2641.000000 2637.000000 2591.000000 2560.000000 2483.000000 2401.000000 2384.000000 2391.000000 2455.000000 2490.000000 2595.000000 2738.000000 2797.000000 2860.000000 2940.000000 2959.000000 2988.000000 2937.000000 2960.000000 3000.000000 2986.000000 2992.000000 2949.000000 2955.000000 2954.000000 2963.000000 2996.000000 3010.000000 3041.000000 3105.000000 3157.000000 3280.000000 -9999.0 -9999.0 -9999.0 -9999.0 -9999.0
-9999.0 -9999.0 -9999.0 -9999.0 -9999.0 -9999.0 -9999.0 -9999.0 -9999.0 -9999.0 -9999.0 -9999.0 -9999.0 -9999.0 -9999.0 -9999.0 -9999.0 -9999.0 -9999.0 -9999.0 -9999.0 -9999.0 -9999.0 -9999.0 -9999.0 -9999.0 -9999.0 -9999.0 3135.000000 3100.000000 3114.000000 3049.000000 2998.000000 2905.000000 2874.000000 2862.000000 2803.000000 2750.000000 2729.000000 2688.000000 2653.000000 2640.000000 2610.000000 2573.000000 2556.000000 2503.000000 2415.000000 2379.000000 2373.000000 2406.000000 2428.000000 2512.000000 2615.000000 2684.000000 2734.000000 2810.000000 2873.000000 2943.000000 2867.000000 2871.000000 2903.000000 2893.000000 2896.000000 2912.000000 2935.000000 2938.000000 2952.000000 2980.000000 2992.000000 3030.000000 3136.000000 3194.000000 -9999.0 -9999.0 -9999.0 -9999.0 -9999.0 -9999.0
-9999.0 -9999.0 -9999.0 -9999.0 -9999.0 -9999.0 -9999.0 -9999.0 -9999.0 -9999.0 -9999.0 -9999.0 -9999.0 -9999.0 -9999.0 -9999.0 -9999.0 -9999.0 -9999.0 -9999.0 -9999.0 -9999.0 -9999.0 -9999.0 -9999.0 -9999.0 -9999.0 -9999.0 3139.000000 3095.000000 3050.000000 3023.000000 2974.000000 2929.000000 2898.000000 2879.000000 2853.000000 2809.000000 2787.000000 2742.000000 2707.000000 2683.000000 2641.000000 2606.000000 2587.000000 2537.000000 2456.000000 2402.000000 2357.000000 2357.000000 2373.000000 2444.000000 2532.000000 2568.000000 2709.000000 2807.000000 2822.000000 2876.000000 2841.000000 2821.000000 2817.000000 2845.000000 2862.000000 2895.000000 2906.000000 2906.000000 2926.000000 2958.000000 2972.000000 3043.000000 3187.000000 3243.000000 -9999.0 -9999.0 -9999.0 -9999.0 -9999.0 -9999.0
-9999.0 -9999.0 -9999.0 -9999.0 -9999.0 -9999.0 -9999.0 -9999.0 -9999.0 -9999.0 -9999.0 -9999.0 -9999.0 -9999.0 -9999.0 -9999.0 -9999.0 -9999.0 -9999.0 -9999.0 -9999.0 -9999.0 -9999.0 -9999.0 -9999.0 -9999.0 -9999.0 -9999.0 3156.000000 3108.000000 3049.000000 3021.000000 2970.000000 2939.000000 2919.000000 2913.000000 2888.000000 2859.000000 2835.000000 2784.000000 2742.000000 2723.000000 2670.000000 2618.000000 2598.000000 2540.000000 2476.000000 2425.000000 2355.000000 2349.000000 2369.000000 2430.000000 2503.000000 2555.000000 2718.000000 2758.000000 2806.000000 2829.000000 2843.000000 2816.000000 2795.000000 2828.000000 2849.000000 2878.000000 2892.000000 2898.000000 2915.000000 2948.000000 2970.000000 3067.000000 3200.000000 3241.000000 -9999.0 -9999.0 -9999.0 -9999.0 -9999.0 -9999.0
-9999.0 -9999.0 -9999.0 -9999.0 -9999.0 -9999.0 -9999.0 -9999.0 -9999.0 -9999.0 -9999.0 -9999.0 -9999.0 -9999.0 -9999.0 -9999.0 -9999.0 -9999.0 -9999.0 -9999.0 -9999.0 -9999.0 -9999.0 -9999.0 -9999.0 -9999.0 -9999.0 3325.000000 3219.000000 3181.000000 3076.000000 3038.000000 3020.000000 2996.000000 2978.000000 2970.000000 2965.000000 2942.000000 2914.000000 2845.000000 2805.000000 2796.000000 2731.000000 2651.000000 2617.000000 2542.000000 2503.000000 2480.000000 2384.000000 2339.000000 2349.000000 2386.000000 2422.000000 2473.000000 2611.000000 2675.000000 2740.000000 2736.000000 2792.000000 2813.000000 2766.000000 2780.000000 2794.000000 2837.000000 2881.000000 2879.000000 2888.000000 2937.000000 3007.000000 3093.000000 3221.000000 3291.000000 -9999.0 -9999.0 -9999.0 -9999.0 -9999.0 -9999.0
-9999.0 -9999.0 -9999.0 -9999.0 -9999.0 -9999.0 -9999.0 -9999.0 -9999.0 -9999.0 -9999.0 -9999.0 -9999.0 -9999.0 -9999.0 -9999.0 -9999.0 -9999.0 -9999.0 -9999.0 -9999.0 -9999.0 -9999.0 -9999.0 -9999.0 -9999.0 -9999.0 -9999.0 3255.000000 3194.000000 3111.000000 3085.000000 3076.000000 3050.000000 3035.000000 3047.000000 3015.000000 2945.000000 2900.000000 2847.000000 2810.000000 2796.000000 2743.000000 2692.000000 2639.000000 2556.000000 2508.000000 2490.000000 2416.000000 2343.000000 2331.000000 2344.000000 2387.000000 2427.000000 2541.000000 2639.000000 2647.000000 2667.000000 2739.000000 2728.000000 2734.000000 2762.000000 2780.000000 2825.000000 2851.000000 2855.000000 2886.000000 2941.000000 2980.000000 3094.000000 3217.000000 3278.000000 -9999.0 -9999.0 -9999.0 -9999.0 -9999.0 -9999.0
-9999.0 -9999.0 -9999.0 -9999.0 -9999.0 -9999.0 -9999.0 -9999.0 -9999.0 -9999.0 -9999.0 -9999.0 -9999.0 -9999.0 -9999.0 -9999.0 -9999.0 -9999.0 -9999.0 -9999.0 -9999.0 -9999.0 -9999.0 -9999.0 -9999.0 -9999.0 -9999.0 -9999.0 3246.000000 3202.000000 3133.000000 3106.000000 3099.000000 3093.000000 3054.000000 3042.000000 3002.000000 2949.000000 2925.000000 2852.000000 2800.000000 2795.000000 2738.000000 2717.000000 2689.000000 2575.000000 2506.000000 2489.000000 2424.000000 2351.000000 2335.000000 2317.000000 2373.000000 2411.000000 2525.000000 2604.000000 2619.000000 2656.000000 2706.000000 2708.000000 2726.000000 2762.000000 2782.000000 2830.000000 2850.000000 2851.000000 2897.000000 2950.000000 2990.000000 3101.000000 3241.000000 3264.000000 -9999.0 -9999.0 -9999.0 -9999.0 -9999.0 -9999.0
-9999.0 -9999.0 -9999.0 -9999.0 -9999.0 -9999.0 -9999.0 -9999.0 -9999.0 -9999.0 -9999.0 -9999.0 -9999.0 -9999.0 -9999.0 -9999.0 -9999.0 -9999.0 -9999.0 -9999.0 -9999.0 -9999.0 -9999.0 -9999.0 -9999.0 -9999.0 -9999.0 -9999.0 -9999.0 -9999.0 3210.000000 3173.000000 3169.000000 3170.000000 3140.000000 3109.000000 3054.000000 3013.000000 2968.000000 2877.000000 2794.000000 2755.000000 2687.000000 2656.000000 2678.000000 2628.000000 2518.000000 2495.000000 2446.000000 2362.000000 2331.000000 2291.000000 2332.000000 2367.000000 2481.000000 2546.000000 2577.000000 2617.000000 2656.000000 2697.000000 2700.000000 2748.000000 2780.000000 2819.000000 2830.000000 2855.000000 2884.000000 2949.000000 2989.000000 3134.000000 3222.000000 3207.000000 -9999.0 -9999.0 -9999.0 -9999.0 -9999.0 -9999.0
-9999.0 -9999.0 -9999.0 -9999.0 -9999.0 -9999.0 -9999.0 -9999.0 -9999.0 -9999.0 -9999.0 -9999.0 -9999.0 -9999.0 -9999.0 -9999.0 -9999.0 -9999.0 -9999.0 -9999.0 -9999.0 -9999.0 -9999.0 -9999.0 -9999.0 -9999.0 -9999.0 -9999.0 -9999.0 -9999.0 3170.000000 3112.000000 3112.000000 3075.000000 3089.000000 3087.000000 3016.000000 2942.000000 2916.000000 2875.000000 2815.000000 2782.000000 2693.000000 2633.000000 2607.000000 2588.000000 2512.000000 2488.000000 2458.000000 2382.000000 2339.000000 2280.000000 2299.000000 2320.000000 2403.000000 2454.000000 2529.000000 2645.000000 2678.000000 2668.000000 2672.000000 2699.000000 2724.000000 2774.000000 2823.000000 2843.000000 2911.000000 2974.000000 3015.000000 3122.000000 3154.000000 3151.000000 3177.000000 3239.000000 -9999.0 -9999.0 -9999.0 -9999.0
-9999.0 -9999.0 -9999.0 -9999.0 -9999.0 -9999.0 -9999.0 -9999.0 -9999.0 -9999.0 -9999.0 -9999.0 -9999.0 -9999.0 -9999.0 -9999.0 -9999.0 -9999.0 -9999.0 -9999.0 -9999.0 -9999.0 -9999.0 -9999.0 -9999.0 -9999.0 -9999.0 -9999.0 -9999.0 -9999.0 3163.000000 3093.000000 3091.000000 3045.000000 3049.000000 3043.000000 2985.000000 2915.000000 2885.000000 2829.000000 2765.000000 2757.000000 2705.000000 2622.000000 2586.000000 2565.000000 2509.000000 2477.000000 2456.000000 2391.000000 2346.000000 2278.000000 2286.000000 2303.000000 2365.000000 2484.000000 2551.000000 2636.000000 2652.000000 2658.000000 2656.000000 2685.000000 2706.000000 2755.000000 2811.000000 2848.000000 2939.000000 2992.000000 3030.000000 3140.000000 3150.000000 3143.000000 3153.000000 3188.000000 3230.000000 -9999.0 -9999.0 -9999.0
-9999.0 -9999.0 -9999.0 -9999.0 -9999.0 -9999.0 -9999.0 -9999.0 -9999.0 -9999.0 -9999.0 -9999.0 -9999.0 -9999.0 -9999.0 -9999.0 -9999.0 -9999.0 -9999.0 -9999.0 -9999.0 -9999.0 -9999.0 -9999.0 -9999.0 -9999.0 -9999.0 -9999.0 -9999.0 -9999.0 3148.000000 3064.000000 3065.000000 2999.000000 2973.000000 2972.000000 2969.000000 2890.000000 2856.000000 2804.000000 2738.000000 2711.000000 2672.000000 2673.000000 2610.000000 2538.000000 2490.000000 2474.000000 2463.000000 2401.000000 2356.000000 2280.000000 2263.000000 2278.000000 2352.000000 2457.000000 2521.000000 2581.000000 2619.000000 2609.000000 2611.000000 2652.000000 2665.000000 2734.000000 2804.000000 2853.000000 2990.000000 3073.000000 3090.000000 3119.000000 3126.000000 3123.000000 3113.000000 3125.000000 3138.000000 -9999.0 -9999.0 -9999.0
-9999.0 -9999.0 -9999.0 -9999.0 -9999.0 -9999.0 -9999.0 -9999.0 -9999.0 -9999.0 -9999.0 -9999.0 -9999.0 -9999.0 -9999.0 -9999.0 -9999.0 -9999.0 -9999.0 -9999.0 -9999.0 -9999.0 -9999.0 -9999.0 -9999.0 -9999.0 -9999.0 -9999.0 -9999.0 -9999.0 3134.000000 3042.000000 3032.000000 2978.000000 2955.000000 2941.000000 2949.000000 2906.000000 2870.000000 2785.000000 2715.000000 2682.000000 2663.000000 2632.000000 2601.000000 2548.000000 2500.000000 2487.000000 2466.000000 2401.000000 2366.000000 2280.000000 2242.000000 2242.000000 2318.000000 2415.000000 2465.000000 2554.000000 2565.000000 2569.000000 2598.000000 2638.000000 2672.000000 2720.000000 2804.000000 2885.000000 2961.000000 3019.000000 3021.000000 3037.000000 3074.000000 3090.000000 3090.000000 3087.000000 3101.000000 -9999.0 -9999.0 -9999.0
-9999.0 -9999.0 -9999.0 -9999.0 -9999.0 -9999.0 -9999.0 -9999.0 -9999.0 -9999.0 -9999.0 -9999.0 -9999.0 -9999.0 -9999.0 -9999.0 -9999.0 -9999.0 -9999.0 -9999.0 -9999.0 -9999.0 -9999.0 -9999.0 -9999.0 -9999.0 -9999.0 -9999.0 -9999.0 -9999.0 -9999.0 3057.000000 3028.000000 2978.000000 2949.000000 2932.000000 2915.000000 2875.000000 2846.000000 2795.000000 2722.000000 2691.000000 2654.000000 2619.000000 2597.000000 2555.000000 2505.000000 2485.000000 2457.000000 2388.000000 2351.000000 2282.000000 2239.000000 2241.000000 2305.000000 2404.000000 2444.000000 2545.000000 2551.000000 2566.000000 2609.000000 2651.000000 2676.000000 2730.000000 2806.000000 2865.000000 2952.000000 3012.000000 3002.000000 3002.000000 3021.000000 3057.000000 3075.000000 3076.000000 3090.000000 -9999.0 -9999.0 -9999.0
-9999.0 -9999.0 -9999.0 -9999.0 -9999.0 -9999.0 -9999.0 -9999.0 -9999.0 -9999.0 -9999.0 -9999.0 -9999.0 -9999.0 -9999.0 -9999.0 -9999.0 -9999.0 -9999.0 -9999.0 -9999.0 -9999.0 -9999.0 -9999.0 -9999.0 -9999.0 -9999.0 -9999.0 -9999.0 -9999.0 -9999.0 3090.000000 3042.000000 2993.000000 2968.000000 2950.000000 2911.000000 2852.000000 2822.000000 2762.000000 2717.000000 2692.000000 2650.000000 2626.000000 2616.000000 2585.000000 2547.000000 2510.000000 2464.000000 2426.000000 2379.000000 2291.000000 2236.000000 2241.000000 2279.000000 2380.000000 2432.000000 2516.000000 2541.000000 2564.000000 2627.000000 2682.000000 2707.000000 2760.000000 2819.000000 2866.000000 2995.000000 3000.000000 2987.000000 2971.000000 2969.000000 2989.000000 3038.000000 3050.000000 3052.000000 3082.000000 -9999.0 -9999.0
-9999.0 -9999.0 -9999.0 -9999.0 -9999.0 -9999.0 -9999.0 -9999.0 -9999.0 -9999.0 -9999.0 -9999.0 -9999.0 -9999.0 -9999.0 -9999.0 -9999.0 -9999.0 -9999.0 -9999.0 -9999.0 -9999.0 -9999.0 -9999.0 -9999.0 -9999.0 -9999.0 -9999.0 -9999.0 -9999.0 -9999.0 3128.000000 3069.000000 3009.000000 2971.000000 2955.000000 2926.000000 2892.000000 2883.000000 2824.000000 2773.000000 2750.000000 2723.000000 2703.000000 2700.000000 2664.000000 2600.000000 2552.000000 2481.000000 2418.000000 2383.000000 2283.000000 2230.000000 2238.000000 2269.000000 2360.000000 2404.000000 2486.000000 2530.000000 2561.000000 2697.000000 2729.000000 2755.000000 2816.000000 2874.000000 2923.000000 3004.000000 2969.000000 2960.000000 2944.000000 2924.000000 2938.000000 2975.000000 3054.000000 3060.000000 3079.000000 -9999.0 -9999.0
-9999.0 -9999.0 -9999.0 -9999.0 -9999.0 -9999.0 -9999.0 -9999.0 -9999.0 -9999.0 -9999.0 -9999.0 -9999.0 -9999.0 -9999.0 -9999.0 -9999.0 -9999.0 -9999.0 -9999.0 -9999.0 -9999.0 -9999.0 -9999.0 -9999.0 -9999.0 -9999.0 -9999.0 -9999.0 -9999.0 -9999.0 3151.000000 3109.000000 3040.000000 2971.000000 2954.000000 2923.000000 2891.000000 2878.000000 2847.000000 2810.000000 2797.000000 2762.000000 2728.000000 2693.000000 2641.000000 2597.000000 2565.000000 2485.000000 2411.000000 2372.000000 2280.000000 2228.000000 2240.000000 2278.000000 2342.000000 2393.000000 2457.000000 2530.000000 2576.000000 2713.000000 2765.000000 2789.000000 2847.000000 2910.000000 2948.000000 2997.000000 2970.000000 2946.000000 2923.000000 2910.000000 2914.000000 2957.000000 3024.000000 3044.000000 3088.000000 -9999.0 -9999.0
-9999.0 -9999.0 -9999.0 -9999.0 -9999.0 -9999.0 -9999.0 -9999.0 -9999.0 -9999.0 -9999.0 -9999.0 -9999.0 -9999.0 -9999.0 -9999.0 -9999.0 -9999.0 -9999.0 -9999.0 -9999.0 -9999.0 -9999.0 -9999.0 -9999.0 -9999.0 -9999.0 -9999.0 -9999.0 3081.000000 3064.000000 3069.000000 3087.000000 3051.000000 3020.000000 3000.000000 2947.000000 2889.000000 2869.000000 2821.000000 2775.000000 2752.000000 2713.000000 2683.000000 2671.000000 2628.000000 2574.000000 2542.000000 2465.000000 2410.000000 2387.000000 2278.000000 2225.000000 2239.000000 2275.000000 2332.000000 2378.000000 2462.000000 2579.000000 2622.000000 2708.000000 2798.000000 2843.000000 2918.000000 2977.000000 2980.000000 2985.000000 2971.000000 2944.000000 2921.000000 2910.000000 2909.000000 2917.000000 2986.000000 3006.000000 3057.000000 -9999.0 -9999.0
-9999.0 -9999.0 -9999.0 -9999.0 -9999.0 -9999.0 -9999.0 -9999.0 -9999.0 -9999.0 -9999.0 -9999.0 -9999.0 -9999.0 -9999.0 -9999.0 -9999.0 -9999.0 -9999.0 -9999.0 -9999.0 -9999.0 -9999.0 -9999.0 -9999.0 -9999.0 -9999.0 -9999.0 3006.000000 3012.000000 3006.000000 3016.000000 3023.000000 2975.000000 2936.000000 2919.000000 2916.000000 2926.000000 2920.000000 2842.000000 2767.000000 2734.000000 2696.000000 2683.000000 2656.000000 2600.000000 2541.000000 2512.000000 2452.000000 2399.000000 2375.000000 2273.000000 2213.000000 2227.000000 2266.000000 2329.000000 2362.000000 2483.000000 2626.000000 2681.000000 2767.000000 2867.000000 2911.000000 3001.000000 2980.000000 2937.000000 2927.000000 2924.000000 2920.000000 2905.000000 2891.000000 2896.000000 2920.000000 2981.000000 3017.000000 3052.000000 -9999.0 -9999.0
-9999.0 -9999.0 -9999.0 -9999.0 -9999.0 -9999.0 -9999.0 -9999.0 -9999.0 -9999.0 -9999.0 -9999.0 -9999.0 -9999.0 -9999.0 -9999.0 -9999.0 -9999.0 -9999.0 -9999.0 -9999.0 -9999.0 -9999.0 -9999.0 -9999.0 -9999.0 -9999.0 3006.000000 2957.000000 2958.000000 2973.000000 2986.000000 2989.000000 2941.000000 2912.000000 2881.000000 2872.000000 2888.000000 2907.000000 2876.000000 2787.000000 2752.000000 2700.000000 2661.000000 2644.000000 2591.000000 2531.000000 2490.000000 2442.000000 2397.000000 2370.000000 2269.000000 2204.000000 2219.000000 2261.000000 2331.000000 2367.000000 2468.000000 2576.000000 2623.000000 2757.000000 2862.000000 2911.000000 3017.000000 2954.000000 2919.000000 2929.000000 2936.000000 2918.000000 2894.000000 2877.000000 2878.000000 2908.000000 2998.000000 3030.000000 3074.000000 -9999.0 -9999.0
-9999.0 -9999.0 -9999.0 -9999.0 -9999.0 -9999.0 -9999.0 -9999.0 -9999.0 -9999.0 -9999.0 -9999.0 -9999.0 -9999.0 -9999.0 -9999.0 -9999.0 -9999.0 -9999.0 -9999.0 -9999.0 -9999.0 -9999.0 -9999.0 -9999.0 -9999.0 -9999.0 2947.000000 2900.000000 2899.000000 2942.000000 2943.000000 2953.000000 2888.000000 2857.000000 2841.000000 2804.000000 2838.000000 2844.000000 2857.000000 2841.000000 2817.000000 2756.000000 2703.000000 2669.000000 2618.000000 2529.000000 2484.000000 2421.000000 2370.000000 2343.000000 2269.000000 2188.000000 2208.000000 2252.000000 2332.000000 2400.000000 2529.000000 2659.000000 2717.000000 2801.000000 2891.000000 2943.000000 2995.000000 2901.000000 2875.000000 2885.000000 2909.000000 2913.000000 2892.000000 2863.000000 2875.000000 2954.000000 2993.000000 3023.000000 -9999.0 -9999.0 -9999.0
-9999.0 -9999.0 -9999.0 -9999.0 -9999.0 -9999.0 -9999.0 -9999.0 -9999.0 -9999.0 -9999.0 -9999.0 -9999.0 -9999.0 -9999.0 -9999.0 -9999.0 -9999.0 -9999.0 -9999.0 -9999.0 -9999.0 -9999.0 -9999.0 -9999.0 3065.000000 3023.000000 2911.000000 2860.000000 2856.000000 2896.000000 2890.000000 2890.000000 2852.000000 2828.000000 2809.000000 2767.000000 2754.000000 2787.000000 2782.000000 2767.000000 2758.000000 2731.000000 2683.000000 2647.000000 2573.000000 2508.000000 2463.000000 2400.000000 2343.000000 2319.000000 2251.000000 2180.000000 2195.000000 2257.000000 2353.000000 2410.000000 2518.000000 2633.000000 2677.000000 2764.000000 2883.000000 2944.000000 2928.000000 2856.000000 2836.000000 2823.000000 2856.000000 2880.000000 2870.000000 2880.000000 2903.000000 3046.000000 3010.000000 3016.000000 3033.000000 -9999.0 -9999.0
-9999.0 -9999.0 -9999.0 -9999.0 -9999.0 -9999.0 -9999.0 -9999.0 -9999.0 -9999.0 -9999.0 -9999.0 -9999.0 -9999.0 -9999.0 -9999.0 -9999.0 -9999.0 -9999.0 -9999.0 -9999.0 -9999.0 -9999.0 -9999.0 -9999.0 3080.000000 3024.000000 2913.000000 2845.000000 2830.000000 2841.000000 2859.000000 2848.000000 2830.000000 2806.000000 2788.000000 2759.000000 2730.000000 2736.000000 2752.000000 2740.000000 2727.000000 2715.000000 2669.000000 2633.000000 2559.000000 2486.000000 2450.000000 2384.000000 2334.000000 2303.000000 2229.000000 2180.000000 2199.000000 2267.000000 2345.000000 2401.000000 2498.000000 2604.000000 2646.000000 2761.000000 2872.000000 2918.000000 2899.000000 2843.000000 2832.000000 2796.000000 2828.000000 2855.000000 2851.000000 2895.000000 2921.000000 3020.000000 2977.000000 2978.000000 3007.000000 3039.000000 -9999.0
-9999.0 -9999.0 -9999.0 -9999.0 -9999.0 -9999.0 -9999.0 -9999.0 -9999.0 -9999.0 -9999.0 -9999.0 -9999.0 -9999.0 -9999.0 -9999.0 -9999.0 -9999.0 -9999.0 -9999.0 -9999.0 -9999.0 -9999.0 -9999.0 3112.000000 3047.000000 3005.000000 2915.000000 2835.000000 2808.000000 2805.000000 2783.000000 2786.000000 2756.000000 2733.000000 2731.000000 2709.000000 2693.000000 2680.000000 2653.000000 2702.000000 2684.000000 2656.000000 2614.000000 2593.000000 2531.000000 2462.000000 2433.000000 2368.000000 2318.000000 2281.000000 2204.000000 2177.000000 2202.000000 2282.000000 2347.000000 2372.000000 2461.000000 2616.000000 2664.000000 2770.000000 2914.000000 2912.000000 2850.000000 2816.000000 2798.000000 2800.000000 2785.000000 2784.000000 2836.000000 2918.000000 2992.000000 2964.000000 2947.000000 2947.000000 3004.000000 3084.000000 -9999.0
-9999.0 -9999.0 -9999.0 -9999.0 -9999.0 -9999.0 -9999.0 -9999.0 -9999.0 -9999.0 -9999.0 -9999.0 -9999.0 -9999.0 -9999.0 -9999.0 -9999.0 -9999.0 -9999.0 -9999.0 -9999.0 3086.000000 3061.000000 3065.000000 3106.000000 3056.000000 3016.000000 2917.000000 2821.000000 2787.000000 2747.000000 2726.000000 2707.000000 2680.000000 2661.000000 2652.000000 2656.000000 2622.000000 2621.000000 2595.000000 2624.000000 2634.000000 2617.000000 2573.000000 2556.000000 2509.000000 2433.000000 2418.000000 2373.000000 2303.000000 2266.000000 2203.000000 2174.000000 2214.000000 2295.000000 2346.000000 2369.000000 2467.000000 2572.000000 2623.000000 2738.000000 2877.000000 2910.000000 2820.000000 2787.000000 2776.000000 2790.000000 2782.000000 2791.000000 2838.000000 2900.000000 2912.000000 2919.000000 2939.000000 2965.000000 3065.000000 3173.000000 -9999.0
-9999.0 -9999.0 -9999.0 -9999.0 -9999.0 -9999.0 -9999.0 -9999.0 -9999.0 -9999.0 -9999.0 -9999.0 -9999.0 -9999.0 -9999.0 -9999.0 -9999.0 -9999.0 -9999.0 -9999.0 3114.000000 3054.000000 3021.000000 3020.000000 3050.000000 3065.000000 3021.000000 2925.000000 2823.000000 2785.000000 2735.000000 2716.000000 2689.000000 2647.000000 2634.000000 2629.000000 2615.000000 2613.000000 2604.000000 2582.000000 2579.000000 2591.000000 2587.000000 2560.000000 2544.000000 2499.000000 2427.000000 2408.000000 2363.000000 2298.000000 2263.000000 2201.000000 2165.000000 2205.000000 2284.000000 2342.000000 2368.000000 2443.000000 2522.000000 2587.000000 2718.000000 2835.000000 2854.000000 2795.000000 2766.000000 2759.000000 2765.000000 2772.000000 2788.000000 2879.000000 2907.000000 2915.000000 2908.000000 2950.000000 2993.000000 3074.000000 3165.000000 3161.000000
-9999.0 -9999.0 -9999.0 -9999.0 -9999.0 -9999.0 -9999.0 -9999.0 -9999.0 -9999.0 -9999.0 -9999.0 -9999.0 -9999.0 -9999.0 -9999.0 3095.000000 3094.000000 3138.000000 3083.000000 3048.000000 2945.000000 2936.000000 2950.000000 2944.000000 3008.000000 2981.000000 2906.000000 2819.000000 2785.000000 2718.000000 2680.000000 2648.000000 2619.000000 2594.000000 2593.000000 2585.000000 2564.000000 2566.000000 2558.000000 2544.000000 2531.000000 2521.000000 2519.000000 2505.000000 2471.000000 2423.000000 2401.000000 2347.000000 2286.000000 2257.000000 2188.000000 2139.000000 2175.000000 2252.000000 2313.000000 2356.000000 2481.000000 2619.000000 2648.000000 2710.000000 2755.000000 2775.000000 2766.000000 2758.000000 2756.000000 2757.000000 2769.000000 2781.000000 2859.000000 2894.000000 2875.000000 2880.000000 2993.000000 3070.000000 3134.000000 3126.000000 3148.000000
-9999.0 -9999.0 -9999.0 -9999.0 -9999.0 -9999.0 -9999.0 -9999.0 -9999.0 -9999.0 -9999.0 -9999.0 -9999.0 -9999.0 -9999.0 3052.000000 3007.000000 3009.000000 3045.000000 3067.000000 3015.000000 2914.000000 2867.000000 2862.000000 2863.000000 2882.000000 2903.000000 2897.000000 2819.000000 2786.000000 2719.000000 2641.000000 2621.000000 2594.000000 2582.000000 2573.000000 2545.000000 2539.000000 2533.000000 2518.000000 2492.000000 2486.000000 2489.000000 2480.000000 2467.000000 2440.000000 2407.000000 2380.000000 2344.000000 2277.000000 2243.000000 2175.000000 2122.000000 2153.000000 2200.000000 2309.000000 2355.000000 2450.000000 2557.000000 2568.000000 2622.000000 2694.000000 2724.000000 2774.000000 2754.000000 2755.000000 2758.000000 2781.000000 2806.000000 2826.000000 2851.000000 2869.000000 2903.000000 2958.000000 3013.000000 3062.000000 3179.000000 3223.000000
-9999.0 -9999.0 -9999.0 -9999.0 -9999.0 -9999.0 -9999.0 -9999.0 -9999.0 -9999.0 -9999.0 -9999.0 -9999.0 -9999.0 -9999.0 3009.000000 2975.000000 2976.000000 3013.000000 3047.000000 3033.000000 2897.000000 2845.000000 2837.000000 2830.000000 2831.000000 2846.000000 2865.000000 2805.000000 2763.000000 2700.000000 2614.000000 2604.000000 2583.000000 2569.000000 2558.000000 2534.000000 2518.000000 2515.000000 2492.000000 2470.000000 2474.000000 2477.000000 2451.000000 2444.000000 2427.000000 2398.000000 2376.000000 2336.000000 2269.000000 2237.000000 2166.000000 2098.000000 2132.000000 2201.000000 2291.000000 2339.000000 2432.000000 2499.000000 2531.000000 2623.000000 2670.000000 2707.000000 2763.000000 2754.000000 2759.000000 2769.000000 2786.000000 2798.000000 2811.000000 2855.000000 2871.000000 2919.000000 2967.000000 3003.000000 3039.000000 3167.000000 3229.000000
-9999.0 -9999.0 -9999.0 -9999.0 -9999.0 -9999.0 -9999.0 -9999.0 -9999.0 -9999.0 -9999.0 -9999.0 -9999.0 -9999.0 2994.000000 2940.000000 2931.000000 2934.000000 2962.000000 2995.000000 3014.000000 2910.000000 2818.000000 2812.000000 2804.000000 2773.000000 2762.000000 2754.000000 2776.000000 2742.000000 2659.000000 2634.000000 2602.000000 2561.000000 2546.000000 2538.000000 2512.000000 2487.000000 2470.000000 2461.000000 2462.000000 2461.000000 2432.000000 2407.000000 2398.000000 2395.000000 2382.000000 2356.000000 2312.000000 2252.000000 2210.000000 2134.000000 2084.000000 2097.000000 2162.000000 2246.000000 2283.000000 2385.000000 2463.000000 2496.000000 2546.000000 2658.000000 2709.000000 2737.000000 2768.000000 2782.000000 2791.000000 2805.000000 2809.000000 2807.000000 2852.000000 2921.000000 2958.000000 2993.000000 3023.000000 3060.000000 3144.000000 3195.000000
-9999.0 -9999.0 -9999.0 -9999.0 -9999.0 -9999.0 -9999.0 -9999.0 -9999.0 -9999.0 -9999.0 -9999.0 -9999.0 2991.000000 2962.000000 2898.000000 2886.000000 2914.000000 2918.000000 2932.000000 2940.000000 2917.000000 2803.000000 2782.000000 2789.000000 2752.000000 2742.000000 2708.000000 2711.000000 2741.000000 2689.000000 2624.000000 2586.000000 2534.000000 2515.000000 2507.000000 2489.000000 2461.000000 2451.000000 2428.000000 2406.000000 2384.000000 2376.000000 2350.000000 2338.000000 2363.000000 2354.000000 2337.000000 2306.000000 2222.000000 2177.000000 2110.000000 2070.000000 2081.000000 2123.000000 2212.000000 2267.000000 2369.000000 2391.000000 2454.000000 2567.000000 2622.000000 2653.000000 2702.000000 2751.000000 2790.000000 2802.000000 2846.000000 2849.000000 2867.000000 2886.000000 2977.000000 3049.000000 3105.000000 3111.000000 3134.000000 3236.000000 -9999.0
-9999.0 -9999.0 -9999.0 -9999.0 -9999.0 -9999.0 -9999.0 -9999.0 -9999.0 -9999.0 -9999.0 -9999.0 -9999.0 2996.000000 2958.000000 2889.000000 2872.000000 2878.000000 2902.000000 2894.000000 2895.000000 2896.000000 2800.000000 2772.000000 2780.000000 2734.000000 2722.000000 2693.000000 2686.000000 2713.000000 2687.000000 2620.000000 2571.000000 2515.000000 2490.000000 2479.000000 2456.000000 2435.000000 2428.000000 2404.000000 2373.000000 2357.000000 2348.000000 2320.000000 2305.000000 2334.000000 2329.000000 2316.000000 2289.000000 2204.000000 2155.000000 2087.000000 2065.000000 2066.000000 2099.000000 2166.000000 2207.000000 2302.000000 2372.000000 2457.000000 2558.000000 2595.000000 2623.000000 2671.000000 2774.000000 2785.000000 2793.000000 2858.000000 2873.000000 2890.000000 2909.000000 2984.000000 3097.000000 3148.000000 3158.000000 3197.000000 3289.000000 -9999.0
-9999.0 -9999.0 -9999.0 -9999.0 -9999.0 -9999.0 -9999.0 -9999.0 -9999.0 -9999.0 -9999.0 -9999.0 3038.000000 2978.000000 2943.000000 2882.000000 2862.000000 2857.000000 2825.000000 2829.000000 2848.000000 2856.000000 2788.000000 2754.000000 2721.000000 2690.000000 2687.000000 2688.000000 2666.000000 2654.000000 2654.000000 2585.000000 2567.000000 2511.000000 2453.000000 2446.000000 2408.000000 2386.000000 2385.000000 2364.000000 2325.000000 2315.000000 2291.000000 2268.000000 2237.000000 2273.000000 2251.000000 2239.000000 2202.000000 2143.000000 2105.000000 2049.000000 2044.000000 2059.000000 2088.000000 2135.000000 2160.000000 2257.000000 2403.000000 2459.000000 2508.000000 2548.000000 2637.000000 2741.000000 2730.000000 2740.000000 2826.000000 2932.000000 2930.000000 2924.000000 2947.000000 2967.000000 3131.000000 3210.000000 3213.000000 3197.000000 3252.000000 -9999.0
-9999.0 -9999.0 -9999.0 -9999.0 -9999.0 -9999.0 -9999.0 -9999.0 -9999.0 -9999.0 3039.000000 3016.000000 3000.000000 2950.000000 2901.000000 2839.000000 2805.000000 2794.000000 2779.000000 2766.000000 2776.000000 2813.000000 2768.000000 2736.000000 2705.000000 2685.000000 2666.000000 2657.000000 2636.000000 2625.000000 2623.000000 2563.000000 2540.000000 2491.000000 2452.000000 2424.000000 2392.000000 2372.000000 2360.000000 2318.000000 2281.000000 2248.000000 2220.000000 2205.000000 2185.000000 2192.000000 2167.000000 2152.000000 2113.000000 2065.000000 2040.000000 2023.000000 2049.000000 2062.000000 2090.000000 2127.000000 2163.000000 2297.000000 2374.000000 2395.000000 2456.000000 2573.000000 2653.000000 2669.000000 2714.000000 2762.000000 2925.000000 3000.000000 2964.000000 2953.000000 2985.000000 3005.000000 3052.000000 3131.000000 3132.000000 3166.000000 3208.000000 3243.000000
-9999.0 -9999.0 -9999.0 -9999.0 -9999.0 -9999.0 -9999.0 -9999.0 -9999.0 -9999.0 3005.000000 2970.000000 2959.000000 2968.000000 2903.000000 2827.000000 2786.000000 2774.000000 2765.000000 2763.000000 2759.000000 2799.000000 2785.000000 2751.000000 2698.000000 2678.000000 2661.000000 2648.000000 2619.000000 2605.000000 2596.000000 2552.000000 2525.000000 2481.000000 2447.000000 2424.000000 2381.000000 2372.000000 2350.000000 2300.000000 2266.000000 2236.000000 2186.000000 2174.000000 2156.000000 2144.000000 2120.000000 2102.000000 2073.000000 2033.000000 2013.000000 2028.000000 2054.000000 2067.000000 2096.000000 2145.000000 2170.000000 2328.000000 2386.000000 2415.000000 2479.000000 2567.000000 2612.000000 2647.000000 2722.000000 2800.000000 2953.000000 3035.000000 2988.000000 2970.000000 2998.000000 3021.000000 3050.000000 3112.000000 3136.000000 3183.000000 3230.000000 3277.000000
-9999.0 -9999.0 -9999.0 -9999.0 -9999.0 -9999.0 -9999.0 -9999.0 -9999.0 -9999.0 2964.000000 2929.000000 2892.000000 2898.000000 2902.000000 2850.000000 2802.000000 2792.000000 2750.000000 2723.000000 2718.000000 2771.000000 2823.000000 2798.000000 2709.000000 2649.000000 2634.000000 2627.000000 2595.000000 2592.000000 2572.000000 2552.000000 2508.000000 2458.000000 2423.000000 2411.000000 2373.000000 2331.000000 2311.000000 2251.000000 2214.000000 2192.000000 2133.000000 2115.000000 2098.000000 2074.000000 2047.000000 2034.000000 2014.000000 1994.000000 2004.000000 2027.000000 2061.000000 2080.000000 2109.000000 2146.000000 2181.000000 2262.000000 2367.000000 2428.000000 2561.000000 2612.000000 2592.000000 2650.000000 2749.000000 2785.000000 2826.000000 2970.000000 2987.000000 3065.000000 3043.000000 3053.000000 3090.000000 3116.000000 3141.000000 3235.000000 3304.000000 3353.000000
-9999.0 -9999.0 -9999.0 -9999.0 -9999.0 -9999.0 -9999.0 -9999.0 -9999.0 -9999.0 2957.000000 2917.000000 2866.000000 2855.000000 2843.000000 2878.000000 2789.000000 2741.000000 2684.000000 2667.000000 2652.000000 2660.000000 2715.000000 2740.000000 2682.000000 2611.000000 2602.000000 2578.000000 2555.000000 2534.000000 2525.000000 2544.000000 2513.000000 2450.000000 2383.000000 2383.000000 2339.000000 2283.000000 2265.000000 2199.000000 2165.000000 2152.000000 2119.000000 2068.000000 2056.000000 2030.000000 2006.000000 1992.000000 1980.000000 2002.000000 2012.000000 2032.000000 2073.000000 2105.000000 2157.000000 2179.000000 2217.000000 2251.000000 2340.000000 2395.000000 2542.000000 2544.000000 2538.000000 2569.000000 2658.000000 2673.000000 2775.000000 2849.000000 2909.000000 2982.000000 3033.000000 3103.000000 3126.000000 3142.000000 3164.000000 3283.000000 3390.000000 -9999.0
-9999.0 -9999.0 -9999.0 -9999.0 -9999.0 -9999.0 -9999.0 -9999.0 -9999.0 -9999.0 2958.000000 2919.000000 2860.000000 2849.000000 2839.000000 2819.000000 2775.000000 2713.000000 2659.000000 2636.000000 2629.000000 2622.000000 2669.000000 2704.000000 2698.000000 2600.000000 2587.000000 2557.000000 2535.000000 2512.000000 2494.000000 2534.000000 2499.000000 2431.000000 2372.000000 2355.000000 2313.000000 2265.000000 2244.000000 2181.000000 2148.000000 2134.000000 2091.000000 2047.000000 2034.000000 2006.000000 1988.000000 1967.000000 1992.000000 2012.000000 2022.000000 2036.000000 2080.000000 2124.000000 2191.000000 2206.000000 2245.000000 2325.000000 2320.000000 2388.000000 2510.000000 2506.000000 2507.000000 2545.000000 2614.000000 2643.000000 2749.000000 2889.000000 2913.000000 2932.000000 3013.000000 3064.000000 3144.000000 3165.000000 3207.000000 3301.000000 -9999.0 -9999.0
-9999.0 -9999.0 -9999.0 -9999.0 -9999.0 -9999.0 -9999.0 -9999.0 -9999.0 -9999.0 2931.000000 2905.000000 2829.000000 2791.000000 2790.000000 2777.000000 2760.000000 2693.000000 2616.000000 2604.000000 2599.000000 2584.000000 2591.000000 2624.000000 2684.000000 2605.000000 2567.000000 2534.000000 2497.000000 2481.000000 2468.000000 2480.000000 2452.000000 2388.000000 2333.000000 2314.000000 2281.000000 2236.000000 2215.000000 2155.000000 2108.000000 2090.000000 2055.000000 2023.000000 2000.000000 1985.000000 1953.000000 1990.000000 2027.000000 2038.000000 2056.000000 2080.000000 2138.000000 2187.000000 2288.000000 2284.000000 2294.000000 2402.000000 2431.000000 2418.000000 2463.000000 2495.000000 2511.000000 2548.000000 2588.000000 2609.000000 2706.000000 2782.000000 2801.000000 2928.000000 3047.000000 3078.000000 3131.000000 3208.000000 3249.000000 3319.000000 -9999.0 -9999.0
-9999.0 -9999.0 -9999.0 -9999.0 -9999.0 -9999.0 -9999.0 -9999.0 -9999.0 -9999.0 2893.000000 2852.000000 2764.000000 2711.000000 2706.000000 2705.000000 2688.000000 2686.000000 2601.000000 2573.000000 2570.000000 2558.000000 2547.000000 2547.000000 2592.000000 2622.000000 2577.000000 2512.000000 2479.000000 2462.000000 2453.000000 2414.000000 2386.000000 2342.000000 2278.000000 2254.000000 2219.000000 2188.000000 2169.000000 2118.000000 2060.000000 2046.000000 2027.000000 1978.000000 1978.000000 1941.000000 2010.000000 2031.000000 2068.000000 2100.000000 2101.000000 2137.000000 2197.000000 2258.000000 2342.000000 2347.000000 2338.000000 2404.000000 2461.000000 2450.000000 2487.000000 2516.000000 2539.000000 2566.000000 2601.000000 2628.000000 2682.000000 2785.000000 2846.000000 2961.000000 3052.000000 3100.000000 3163.000000 3238.000000 3284.000000 -9999.0 -9999.0 -9999.0
-9999.0 -9999.0 -9999.0 -9999.0 -9999.0 -9999.0 -9999.0 -9999.0 -9999.0 2935.000000 2854.000000 2826.000000 2737.000000 2682.000000 2676.000000 2671.000000 2646.000000 2660.000000 2619.000000 2564.000000 2556.000000 2533.000000 2521.000000 2523.000000 2548.000000 2642.000000 2593.000000 2501.000000 2461.000000 2444.000000 2425.000000 2394.000000 2366.000000 2314.000000 2256.000000 2240.000000 2197.000000 2159.000000 2140.000000 2092.000000 2044.000000 2032.000000 2013.000000 1963.000000 1944.000000 1984.000000 2038.000000 2061.000000 2104.000000 2136.000000 2141.000000 2168.000000 2229.000000 2285.000000 2357.000000 2378.000000 2368.000000 2402.000000 2426.000000 2448.000000 2520.000000 2539.000000 2550.000000 2581.000000 2608.000000 2628.000000 2686.000000 2818.000000 2873.000000 2917.000000 3060.000000 3135.000000 3220.000000 3286.000000 3329.000000 -9999.0 -9999.0 -9999.0
-9999.0 -9999.0 -9999.0 -9999.0 -9999.0 -9999.0 -9999.0 2901.000000 2890.000000 2841.000000 2825.000000 2781.000000 2699.000000 2631.000000 2635.000000 2593.000000 2583.000000 2597.000000 2640.000000 2550.000000 2526.000000 2494.000000 2464.000000 2471.000000 2492.000000 2560.000000 2576.000000 2487.000000 2428.000000 2415.000000 2397.000000 2372.000000 2347.000000 2266.000000 2218.000000 2194.000000 2160.000000 2120.000000 2097.000000 2069.000000 2032.000000 2004.000000 1971.000000 1924.000000 1941.000000 2081.000000 2119.000000 2128.000000 2170.000000 2182.000000 2218.000000 2264.000000 2290.000000 2336.000000 2423.000000 2422.000000 2409.000000 2420.000000 2440.000000 2472.000000 2593.000000 2630.000000 2626.000000 2628.000000 2649.000000 2642.000000 2701.000000 2790.000000 2845.000000 2944.000000 3008.000000 3115.000000 3234.000000 3329.000000 3393.000000 -9999.0 -9999.0 -9999.0
-9999.0 -9999.0 -9999.0 -9999.0 2890.000000 2885.000000 2884.000000 2815.000000 2799.000000 2779.000000 2740.000000 2713.000000 2683.000000 2623.000000 2600.000000 2561.000000 2533.000000 2535.000000 2551.000000 2573.000000 2542.000000 2460.000000 2432.000000 2428.000000 2436.000000 2491.000000 2515.000000 2454.000000 2406.000000 2395.000000 2383.000000 2353.000000 2315.000000 2242.000000 2182.000000 2162.000000 2143.000000 2099.000000 2076.000000 2049.000000 2006.000000 1982.000000 1940.000000 1941.000000 1979.000000 2095.000000 2206.000000 2214.000000 2264.000000 2261.000000 2282.000000 2334.000000 2374.000000 2391.000000 2435.000000 2427.000000 2428.000000 2447.000000 2469.000000 2485.000000 2584.000000 2684.000000 2721.000000 2721.000000 2737.000000 2747.000000 2761.000000 2814.000000 2906.000000 2992.000000 3021.000000 3055.000000 3206.000000 3326.000000 3388.000000 -9999.0 -9999.0 -9999.0
-9999.0 -9999.0 -9999.0 -9999.0 2852.000000 2852.000000 2847.000000 2776.000000 2765.000000 2739.000000 2691.000000 2667.000000 2647.000000 2627.000000 2602.000000 2557.000000 2531.000000 2509.000000 2509.000000 2521.000000 2523.000000 2457.000000 2410.000000 2407.000000 2407.000000 2454.000000 2470.000000 2429.000000 2395.000000 2388.000000 2375.000000 2352.000000 2314.000000 2253.000000 2174.000000 2155.000000 2130.000000 2088.000000 2067.000000 2034.000000 2001.000000 1975.000000 1923.000000 1950.000000 1987.000000 2068.000000 2181.000000 2245.000000 2326.000000 2313.000000 2313.000000 2376.000000 2425.000000 2434.000000 2462.000000 2432.000000 2435.000000 2462.000000 2491.000000 2506.000000 2613.000000 2702.000000 2745.000000 2764.000000 2762.000000 2776.000000 2774.000000 2813.000000 2869.000000 2988.000000 3022.000000 3051.000000 3197.000000 3322.000000 3376.000000 -9999.0 -9999.0 -9999.0
-9999.0 -9999.0 -9999.0 -9999.0 2807.000000 2803.000000 2776.000000 2717.000000 2699.000000 2676.000000 2616.000000 2600.000000 2560.000000 2561.000000 2573.000000 2537.000000 2485.000000 2485.000000 2444.000000 2427.000000 2424.000000 2413.000000 2366.000000 2369.000000 2355.000000 2372.000000 2386.000000 2376.000000 2352.000000 2338.000000 2319.000000 2334.000000 2323.000000 2254.000000 2191.000000 2159.000000 2111.000000 2090.000000 2070.000000 2005.000000 1947.000000 1929.000000 1888.000000 1975.000000 2018.000000 2155.000000 2247.000000 2303.000000 2400.000000 2411.000000 2404.000000 2439.000000 2491.000000 2537.000000 2505.000000 2472.000000 2466.000000 2494.000000 2522.000000 2546.000000 2607.000000 2691.000000 2739.000000 2846.000000 2843.000000 2844.000000 2828.000000 2857.000000 2898.000000 2963.000000 3041.000000 3060.000000 3135.000000 3275.000000 3327.000000 -9999.0 -9999.0 -9999.0
-9999.0 -9999.0 -9999.0 -9999.0 2787.000000 2768.000000 2733.000000 2696.000000 2659.000000 2606.000000 2557.000000 2529.000000 2492.000000 2478.000000 2481.000000 2502.000000 2445.000000 2421.000000 2401.000000 2367.000000 2346.000000 2323.000000 2306.000000 2293.000000 2280.000000 2271.000000 2271.000000 2275.000000 2283.000000 2276.000000 2240.000000 2273.000000 2285.000000 2255.000000 2192.000000 2158.000000 2113.000000 2067.000000 2024.000000 1969.000000 1930.000000 1898.000000 1912.000000 1983.000000 2072.000000 2212.000000 2294.000000 2339.000000 2441.000000 2506.000000 2511.000000 2511.000000 2582.000000 2603.000000 2544.000000 2535.000000 2536.000000 2591.000000 2573.000000 2586.000000 2641.000000 2715.000000 2736.000000 2825.000000 2928.000000 2925.000000 2913.000000 2921.000000 2948.000000 3021.000000 3058.000000 3081.000000 3116.000000 3211.000000 3248.000000 3300.000000 -9999.0 -9999.0
-9999.0 -9999.0 -9999.0 2803.000000 2771.000000 2756.000000 2698.000000 2674.000000 2639.000000 2576.000000 2524.000000 2487.000000 2460.000000 2460.000000 2456.000000 2464.000000 2434.000000 2404.000000 2378.000000 2339.000000 2324.000000 2290.000000 2267.000000 2255.000000 2240.000000 2233.000000 2230.000000 2230.000000 2236.000000 2233.000000 2206.000000 2227.000000 2259.000000 2233.000000 2195.000000 2160.000000 2080.000000 2031.000000 1995.000000 1951.000000 1908.000000 1881.000000 1929.000000 1984.000000 2062.000000 2202.000000 2287.000000 2332.000000 2419.000000 2501.000000 2555.000000 2549.000000 2601.000000 2630.000000 2579.000000 2572.000000 2576.000000 2610.000000 2605.000000 2615.000000 2661.000000 2752.000000 2767.000000 2834.000000 2939.000000 2976.000000 2961.000000 2967.000000 2976.000000 3040.000000 3065.000000 3086.000000 3124.000000 3163.000000 3198.000000 3260.000000 -9999.0 -9999.0
-9999.0 2799.000000 2783.000000 2756.000000 2726.000000 2712.000000 2647.000000 2600.000000 2579.000000 2524.000000 2466.000000 2444.000000 2418.000000 2419.000000 2412.000000 2395.000000 2380.000000 2378.000000 2314.000000 2301.000000 2290.000000 2232.000000 2196.000000 2176.000000 2157.000000 2162.000000 2168.000000 2178.000000 2172.000000 2164.000000 2141.000000 2162.000000 2171.000000 2191.000000 2167.000000 2144.000000 2069.000000 1969.000000 1949.000000 1918.000000 1871.000000 1904.000000 1956.000000 2014.000000 2051.000000 2161.000000 2226.000000 2321.000000 2399.000000 2522.000000 2568.000000 2637.000000 2693.000000 2694.000000 2667.000000 2666.000000 2656.000000 2634.000000 2671.000000 2691.000000 2752.000000 2798.000000 2807.000000 2886.000000 2977.000000 3010.000000 3043.000000 3059.000000 3093.000000 3112.000000 3099.000000 3113.000000 3137.000000 3177.000000 3201.000000 3289.000000 -9999.0 -9999.0
-9999.0 2796.000000 2780.000000 2721.000000 2657.000000 2645.000000 2613.000000 2552.000000 2524.000000 2496.000000 2417.000000 2385.000000 2375.000000 2351.000000 2343.000000 2334.000000 2324.000000 2308.000000 2291.000000 2243.000000 2228.000000 2200.000000 2147.000000 2121.000000 2104.000000 2118.000000 2115.000000 2122.000000 2127.000000 2116.000000 2065.000000 2091.000000 2109.000000 2137.000000 2115.000000 2091.000000 2012.000000 1929.000000 1912.000000 1872.000000 1879.000000 1910.000000 1956.000000 2011.000000 2034.000000 2146.000000 2244.000000 2280.000000 2375.000000 2461.000000 2542.000000 2669.000000 2743.000000 2755.000000 2749.000000 2773.000000 2754.000000 2748.000000 2726.000000 2771.000000 2828.000000 2868.000000 2865.000000 2978.000000 3043.000000 3048.000000 3101.000000 3131.000000 3143.000000 3197.000000 3151.000000 3154.000000 3172.000000 3230.000000 3241.000000 3291.000000 -9999.0 -9999.0
-9999.0 2786.000000 2775.000000 2715.000000 2643.000000 2607.000000 2586.000000 2548.000000 2517.000000 2472.000000 2414.000000 2373.000000 2349.000000 2331.000000 2323.000000 2297.000000 2284.000000 2279.000000 2270.000000 2242.000000 2201.000000 2174.000000 2122.000000 2115.000000 2090.000000 2089.000000 2092.000000 2087.000000 2095.000000 2083.000000 2041.000000 2061.000000 2081.000000 2107.000000 2091.000000 2069.000000 1992.000000 1923.000000 1897.000000 1844.000000 1886.000000 1905.000000 1970.000000 2018.000000 2058.000000 2176.000000 2260.000000 2304.000000 2419.000000 2507.000000 2552.000000 2670.000000 2762.000000 2792.000000 2799.000000 2824.000000 2810.000000 2780.000000 2756.000000 2814.000000 2876.000000 2903.000000 2894.000000 2983.000000 3049.000000 3059.000000 3104.000000 3136.000000 3154.000000 3182.000000 3199.000000 3179.000000 3237.000000 3257.000000 3261.000000 3338.000000 -9999.0 -9999.0
-9999.0 2745.000000 2718.000000 2690.000000 2637.000000 2602.000000 2526.000000 2501.000000 2489.000000 2440.000000 2370.000000 2345.000000 2303.000000 2283.000000 2263.000000 2231.000000 2200.000000 2206.000000 2192.000000 2186.000000 2182.000000 2118.000000 2079.000000 2078.000000 2070.000000 2053.000000 2046.000000 2050.000000 2041.000000 2034.000000 2008.000000 2016.000000 2017.000000 2021.000000 2015.000000 1997.000000 1940.000000 1863.000000 1838.000000 1833.000000 1867.000000 1902.000000 1969.000000 2043.000000 2084.000000 2163.000000 2293.000000 2335.000000 2461.000000 2565.000000 2617.000000 2698.000000 2770.000000 2801.000000 2846.000000 2874.000000 2873.000000 2835.000000 2810.000000 2848.000000 2948.000000 2940.000000 2923.000000 2945.000000 2991.000000 3033.000000 3104.000000 3138.000000 3156.000000 3188.000000 3243.000000 3259.000000 3308.000000 3311.000000 3325.000000 -9999.0 -9999.0 -9999.0
-9999.0 -9999.0 -9999.0 2638.000000 2600.000000 2583.000000 2529.000000 2448.000000 2412.000000 2398.000000 2340.000000 2299.000000 2272.000000 2234.000000 2213.000000 2173.000000 2144.000000 2127.000000 2113.000000 2106.000000 2110.000000 2075.000000 2052.000000 2062.000000 2048.000000 2036.000000 2031.000000 2007.000000 1997.000000 1989.000000 1988.000000 1957.000000 1976.000000 1952.000000 1940.000000 1920.000000 1866.000000 1817.000000 1811.000000 1823.000000 1849.000000 1877.000000 1947.000000 2060.000000 2112.000000 2235.000000 2333.000000 2381.000000 2446.000000 2554.000000 2609.000000 2688.000000 2747.000000 2772.000000 2813.000000 2852.000000 2863.000000 2874.000000 2855.000000 2877.000000 2904.000000 2915.000000 2945.000000 2966.000000 2982.000000 3008.000000 3104.000000 3203.000000 3214.000000 3201.000000 3225.000000 3240.000000 3300.000000 -9999.0 -9999.0 -9999.0 -9999.0 -9999.0
-9999.0 -9999.0 -9999.0 2613.000000 2571.000000 2545.000000 2515.000000 2445.000000 2409.000000 2360.000000 2325.000000 2288.000000 2242.000000 2221.000000 2196.000000 2157.000000 2123.000000 2108.000000 2074.000000 2067.000000 2074.000000 2058.000000 2022.000000 2046.000000 2038.000000 2025.000000 2027.000000 2004.000000 1970.000000 1964.000000 1977.000000 1929.000000 1952.000000 1930.000000 1906.000000 1869.000000 1824.000000 1807.000000 1805.000000 1814.000000 1851.000000 1884.000000 1971.000000 2078.000000 2134.000000 2260.000000 2354.000000 2399.000000 2470.000000 2578.000000 2606.000000 2654.000000 2724.000000 2745.000000 2790.000000 2826.000000 2850.000000 2877.000000 2861.000000 2873.000000 2912.000000 2936.000000 2975.000000 3006.000000 3006.000000 3027.000000 3103.000000 3237.000000 3269.000000 3210.000000 3223.000000 3236.000000 3300.000000 -9999.0 -9999.0 -9999.0 -9999.0 -9999.0
-9999.0 -9999.0 -9999.0 2564.000000 2510.000000 2492.000000 2456.000000 2428.000000 2401.000000 2333.000000 2265.000000 2240.000000 2189.000000 2147.000000 2119.000000 2094.000000 2066.000000 2045.000000 1993.000000 2013.000000 1989.000000 1998.000000 1952.000000 1958.000000 2010.000000 1982.000000 1973.000000 1953.000000 1921.000000 1911.000000 1925.000000 1878.000000 1885.000000 1861.000000 1858.000000 1809.000000 1791.000000 1804.000000 1809.000000 1825.000000 1866.000000 1912.000000 2000.000000 2081.000000 2140.000000 2270.000000 2358.000000 2396.000000 2441.000000 2500.000000 2527.000000 2589.000000 2651.000000 2672.000000 2707.000000 2758.000000 2768.000000 2791.000000 2829.000000 2870.000000 2939.000000 3013.000000 3051.000000 3100.000000 3085.000000 3081.000000 3131.000000 3217.000000 3270.000000 3253.000000 3221.000000 3234.000000 -9999.0 -9999.0 -9999.0 -9999.0 -9999.0 -9999.0
-9999.0 -9999.0 -9999.0 2517.000000 2467.000000 2445.000000 2421.000000 2376.000000 2343.000000 2289.000000 2269.000000 2245.000000 2183.000000 2092.000000 2071.000000 2030.000000 2025.000000 2009.000000 1947.000000 1945.000000 1931.000000 1928.000000 1886.000000 1921.000000 1954.000000 1917.000000 1920.000000 1892.000000 1868.000000 1873.000000 1861.000000 1841.000000 1835.000000 1819.000000 1785.000000 1783.000000 1798.000000 1820.000000 1830.000000 1846.000000 1890.000000 1935.000000 2047.000000 2115.000000 2151.000000 2207.000000 2285.000000 2307.000000 2389.000000 2449.000000 2467.000000 2522.000000 2564.000000 2590.000000 2616.000000 2676.000000 2678.000000 2705.000000 2786.000000 2820.000000 2858.000000 2966.000000 3010.000000 3047.000000 3108.000000 3131.000000 3163.000000 3251.000000 3287.000000 3293.000000 3234.000000 3246.000000 -9999.0 -9999.0 -9999.0 -9999.0 -9999.0 -9999.0
-9999.0 -9999.0 -9999.0 -9999.0 2442.000000 2413.000000 2406.000000 2350.000000 2314.000000 2255.000000 2237.000000 2221.000000 2166.000000 2091.000000 2053.000000 1998.000000 1995.000000 1983.000000 1922.000000 1916.000000 1902.000000 1888.000000 1865.000000 1894.000000 1897.000000 1881.000000 1904.000000 1868.000000 1852.000000 1854.000000 1839.000000 1822.000000 1820.000000 1805.000000 1774.000000 1782.000000 1803.000000 1824.000000 1835.000000 1865.000000 1905.000000 1957.000000 2035.000000 2091.000000 2119.000000 2168.000000 2236.000000 2279.000000 2358.000000 2415.000000 2434.000000 2479.000000 2530.000000 2546.000000 2574.000000 2632.000000 2644.000000 2674.000000 2749.000000 2770.000000 2850.000000 2947.000000 2980.000000 3005.000000 3052.000000 3101.000000 3154.000000 3227.000000 3279.000000 3307.000000 3250.000000 3254.000000 -9999.0 -9999.0 -9999.0 -9999.0 -9999.0 -9999.0
-9999.0 -9999.0 -9999.0 -9999.0 2401.000000 2379.000000 2355.000000 2317.000000 2271.000000 2208.000000 2178.000000 2157.000000 2131.000000 2091.000000 2051.000000 1945.000000 1895.000000 1891.000000 1860.000000 1857.000000 1847.000000 1840.000000 1825.000000 1819.000000 1840.000000 1835.000000 1849.000000 1821.000000 1823.000000 1818.000000 1808.000000 1788.000000 1791.000000 1786.000000 1775.000000 1785.000000 1808.000000 1835.000000 1852.000000 1891.000000 1921.000000 1942.000000 1982.000000 2028.000000 2057.000000 2113.000000 2191.000000 2229.000000 2280.000000 2324.000000 2349.000000 2391.000000 2438.000000 2462.000000 2512.000000 2566.000000 2581.000000 2616.000000 2664.000000 2703.000000 2826.000000 2885.000000 2885.000000 2919.000000 3023.000000 3021.000000 3057.000000 3145.000000 3198.000000 3306.000000 -9999.0 -9999.0 -9999.0 -9999.0 -9999.0 -9999.0 -9999.0 -9999.0
-9999.0 -9999.0 -9999.0 -9999.0 2346.000000 2335.000000 2313.000000 2273.000000 2241.000000 2179.000000 2133.000000 2110.000000 2056.000000 2038.000000 2002.000000 1944.000000 1866.000000 1846.000000 1824.000000 1814.000000 1812.000000 1798.000000 1780.000000 1777.000000 1791.000000 1792.000000 1795.000000 1788.000000 1778.000000 1767.000000 1763.000000 1763.000000 1765.000000 1768.000000 1802.000000 1813.000000 1817.000000 1847.000000 1883.000000 1913.000000 1958.000000 1980.000000 2026.000000 2073.000000 2102.000000 2146.000000 2194.000000 2236.000000 2277.000000 2337.000000 2352.000000 2401.000000 2421.000000 2433.000000 2463.000000 2502.000000 2516.000000 2555.000000 2599.000000 2653.000000 2738.000000 2802.000000 2825.000000 2857.000000 2917.000000 2942.000000 2998.000000 3096.000000 3173.000000 3212.000000 -9999.0 -9999.0 -9999.0 -9999.0 -9999.0 -9999.0 -9999.0 -9999.0
-9999.0 -9999.0 -9999.0 -9999.0 -9999.0 2304.000000 2285.000000 2257.000000 2231.000000 2161.000000 2126.000000 2089.000000 2017.000000 1998.000000 1988.000000 1927.000000 1849.000000 1827.000000 1811.000000 1794.000000 1784.000000 1763.000000 1760.000000 1760.000000 1767.000000 1782.000000 1777.000000 1762.000000 1750.000000 1745.000000 1764.000000 1763.000000 1768.000000 1807.000000 1845.000000 1852.000000 1859.000000 1870.000000 1912.000000 1948.000000 1997.000000 2041.000000 2082.000000 2105.000000 2127.000000 2178.000000 2225.000000 2275.000000 2318.000000 2380.000000 2390.000000 2433.000000 2463.000000 2460.000000 2457.000000 2484.000000 2498.000000 2534.000000 2595.000000 2644.000000 2725.000000 2776.000000 2804.000000 2836.000000 2892.000000 2918.000000 2973.000000 3068.000000 3141.000000 3164.000000 -9999.0 -9999.0 -9999.0 -9999.0 -9999.0 -9999.0 -9999.0 -9999.0
-9999.0 -9999.0 -9999.0 -9999.0 -9999.0 2258.000000 2235.000000 2189.000000 2163.000000 2116.000000 2064.000000 2050.000000 1984.000000 1910.000000 1886.000000 1841.000000 1794.000000 1787.000000 1786.000000 1771.000000 1763.000000 1746.000000 1733.000000 1728.000000 1726.000000 1737.000000 1743.000000 1752.000000 1753.000000 1771.000000 1806.000000 1812.000000 1832.000000 1886.000000 1922.000000 1935.000000 1974.000000 1961.000000 1936.000000 2004.000000 2061.000000 2105.000000 2194.000000 2208.000000 2207.000000 2256.000000 2322.000000 2351.000000 2436.000000 2468.000000 2464.000000 2521.000000 2548.000000 2568.000000 2498.000000 2500.000000 2511.000000 2553.000000 2612.000000 2644.000000 2702.000000 2731.000000 2751.000000 2804.000000 2852.000000 2885.000000 2970.000000 3064.000000 3096.000000 3134.000000 -9999.0 -9999.0 -9999.0 -9999.0 -9999.0 -9999.0 -9999.0 -9999.0
-9999.0 -9999.0 -9999.0 -9999.0 -9999.0 -9999.0 2159.000000 2144.000000 2110.000000 2065.000000 2015.000000 1985.000000 1958.000000 1872.000000 1837.000000 1790.000000 1758.000000 1755.000000 1757.000000 1744.000000 1740.000000 1728.000000 1710.000000 1721.000000 1744.000000 1767.000000 1777.000000 1778.000000 1806.000000 1826.000000 1858.000000 1893.000000 1929.000000 1973.000000 1991.000000 2010.000000 2052.000000 2049.000000 2038.000000 2001.000000 2074.000000 2114.000000 2229.000000 2326.000000 2328.000000 2333.000000 2412.000000 2437.000000 2508.000000 2569.000000 2547.000000 2628.000000 2639.000000 2655.000000 2585.000000 2558.000000 2586.000000 2674.000000 2692.000000 2703.000000 2736.000000 2764.000000 2778.000000 2792.000000 2820.000000 2872.000000 2981.000000 3082.000000 3108.000000 -9999.0 -9999.0 -9999.0 -9999.0 -9999.0 -9999.0 -9999.0 -9999.0 -9999.0
-9999.0 -9999.0 -9999.0 -9999.0 -9999.0 -9999.0 2121.000000 2104.000000 2084.000000 2027.000000 1978.000000 1948.000000 1912.000000 1855.000000 1810.000000 1774.000000 1746.000000 1743.000000 1741.000000 1733.000000 1729.000000 1717.000000 1717.000000 1735.000000 1752.000000 1782.000000 1794.000000 1806.000000 1840.000000 1863.000000 1888.000000 1924.000000 1966.000000 2024.000000 2035.000000 2058.000000 2104.000000 2089.000000 2073.000000 2005.000000 2070.000000 2108.000000 2208.000000 2330.000000 2370.000000 2393.000000 2454.000000 2487.000000 2551.000000 2597.000000 2601.000000 2671.000000 2695.000000 2673.000000 2601.000000 2591.000000 2638.000000 2706.000000 2730.000000 2749.000000 2765.000000 2780.000000 2776.000000 2797.000000 2835.000000 2857.000000 2923.000000 3031.000000 3063.000000 -9999.0 -9999.0 -9999.0 -9999.0 -9999.0 -9999.0 -9999.0 -9999.0 -9999.0
-9999.0 -9999.0 -9999.0 -9999.0 -9999.0 -9999.0 -9999.0 2031.000000 2023.000000 1977.000000 1905.000000 1869.000000 1836.000000 1785.000000 1759.000000 1735.000000 1723.000000 1719.000000 1716.000000 1700.000000 1700.000000 1715.000000 1768.000000 1796.000000 1815.000000 1840.000000 1860.000000 1865.000000 1905.000000 1929.000000 1967.000000 1993.000000 1991.000000 2095.000000 2130.000000 2156.000000 2188.000000 2161.000000 2135.000000 2074.000000 2060.000000 2095.000000 2196.000000 2303.000000 2351.000000 2418.000000 2502.000000 2547.000000 2612.000000 2668.000000 2685.000000 2731.000000 2721.000000 2680.000000 2653.000000 2685.000000 2713.000000 2772.000000 2821.000000 2834.000000 2800.000000 2801.000000 2791.000000 2832.000000 2886.000000 2896.000000 2929.000000 2980.000000 3007.000000 -9999.0 -9999.0 -9999.0 -9999.0 -9999.0 -9999.0 -9999.0 -9999.0 -9999.0
-9999.0 -9999.0 -9999.0 -9999.0 -9999.0 -9999.0 -9999.0 1984.000000 1947.000000 1913.000000 1853.000000 1815.000000 1776.000000 1724.000000 1712.000000 1700.000000 1697.000000 1695.000000 1685.000000 1755.000000 1768.000000 1798.000000 1840.000000 1866.000000 1899.000000 1943.000000 1949.000000 1912.000000 1968.000000 1996.000000 2051.000000 2091.000000 2107.000000 2082.000000 2206.000000 2235.000000 2255.000000 2225.000000 2183.000000 2125.000000 2073.000000 2086.000000 2149.000000 2246.000000 2306.000000 2413.000000 2511.000000 2549.000000 2603.000000 2649.000000 2680.000000 2725.000000 2754.000000 2743.000000 2741.000000 2762.000000 2785.000000 2849.000000 2821.000000 2840.000000 2813.000000 2801.000000 2818.000000 2919.000000 2969.000000 2974.000000 3028.000000 3058.000000 -9999.0 -9999.0 -9999.0 -9999.0 -9999.0 -9999.0 -9999.0 -9999.0 -9999.0 -9999.0
-9999.0 -9999.0 -9999.0 -9999.0 -9999.0 -9999.0 -9999.0 1968.000000 1946.000000 1871.000000 1833.000000 1811.000000 1738.000000 1708.000000 1692.000000 1678.000000 1678.000000 1680.000000 1710.000000 1783.000000 1805.000000 1837.000000 1882.000000 1914.000000 1930.000000 1978.000000 1989.000000 1973.000000 1975.000000 2011.000000 2098.000000 2155.000000 2163.000000 2139.000000 2230.000000 2283.000000 2290.000000 2238.000000 2212.000000 2144.000000 2088.000000 2081.000000 2131.000000 2249.000000 2285.000000 2392.000000 2486.000000 2515.000000 2570.000000 2613.000000 2655.000000 2707.000000 2781.000000 2779.000000 2788.000000 2798.000000 2812.000000 2884.000000 2844.000000 2837.000000 2838.000000 2819.000000 2840.000000 2954.000000 3020.000000 3026.000000 3089.000000 -9999.0 -9999.0 -9999.0 -9999.0 -9999.0 -9999.0 -9999.0 -9999.0 -9999.0 -9999.0 -9999.0
-9999.0 -9999.0 -9999.0 -9999.0 -9999.0 -9999.0 -9999.0 -9999.0 1886.000000 1819.000000 1773.000000 1762.000000 1699.000000 1674.000000 1680.000000 1707.000000 1735.000000 1738.000000 1803.000000 1850.000000 1874.000000 1905.000000 1976.000000 1995.000000 2004.000000 2079.000000 2089.000000 2053.000000 2015.000000 2056.000000 2106.000000 2219.000000 2263.000000 2267.000000 2224.000000 2299.000000 2365.000000 2302.000000 2267.000000 2196.000000 2129.000000 2116.000000 2125.000000 2213.000000 2274.000000 2368.000000 2418.000000 2433.000000 2487.000000 2545.000000 2595.000000 2660.000000 2730.000000 2780.000000 2826.000000 2831.000000 2836.000000 2926.000000 2868.000000 2874.000000 2875.000000 2871.000000 2893.000000 2976.000000 3138.000000 3132.000000 -9999.0 -9999.0 -9999.0 -9999.0 -9999.0 -9999.0 -9999.0 -9999.0 -9999.0 -9999.0 -9999.0 -9999.0
-9999.0 -9999.0 -9999.0 -9999.0 -9999.0 -9999.0 -9999.0 -9999.0 -9999.0 1780.000000 1722.000000 1710.000000 1674.000000 1686.000000 1708.000000 1743.000000 1780.000000 1789.000000 1847.000000 1932.000000 1954.000000 1984.000000 2061.000000 2095.000000 2130.000000 2170.000000 2178.000000 2103.000000 2100.000000 2128.000000 2192.000000 2252.000000 2275.000000 2345.000000 2330.000000 2353.000000 2400.000000 2334.000000 2305.000000 2228.000000 2169.000000 2149.000000 2118.000000 2176.000000 2231.000000 2289.000000 2338.000000 2370.000000 2437.000000 2491.000000 2524.000000 2634.000000 2701.000000 2733.000000 2809.000000 2833.000000 2868.000000 2938.000000 2913.000000 2900.000000 2914.000000 2955.000000 2980.000000 3034.000000 3134.000000 -9999.0 -9999.0 -9999.0 -9999.0 -9999.0 -9999.0 -9999.0 -9999.0 -9999.0 -9999.0 -9999.0 -9999.0 -9999.0
-9999.0 -9999.0 -9999.0 -9999.0 -9999.0 -9999.0 -9999.0 -9999.0 -9999.0 1750.000000 1709.000000 1697.000000 1653.000000 1690.000000 1715.000000 1745.000000 1795.000000 1817.000000 1875.000000 1955.000000 1992.000000 2032.000000 2092.000000 2125.000000 2177.000000 2212.000000 2217.000000 2145.000000 2145.000000 2168.000000 2234.000000 2293.000000 2324.000000 2364.000000 2383.000000 2397.000000 2426.000000 2354.000000 2320.000000 2244.000000 2192.000000 2163.000000 2131.000000 2157.000000 2197.000000 2254.000000 2315.000000 2352.000000 2420.000000 2470.000000 2517.000000 2606.000000 2683.000000 2713.000000 2770.000000 2795.000000 2821.000000 2889.000000 2938.000000 2918.000000 2920.000000 2950.000000 2976.000000 3035.000000 3098.000000 -9999.0 -9999.0 -9999.0 -9999.0 -9999.0 -9999.0 -9999.0 -9999.0 -9999.0 -9999.0 -9999.0 -9999.0 -9999.0
-9999.0 -9999.0 -9999.0 -9999.0 -9999.0 -9999.0 -9999.0 -9999.0 -9999.0 -9999.0 1673.000000 1654.000000 1658.000000 1697.000000 1713.000000 1783.000000 1837.000000 1875.000000 1911.000000 2027.000000 2067.000000 2133.000000 2161.000000 2188.000000 2260.000000 2286.000000 2296.000000 2253.000000 2232.000000 2229.000000 2289.000000 2369.000000 2399.000000 2451.000000 2481.000000 2484.000000 2454.000000 2392.000000 2352.000000 2302.000000 2238.000000 2207.000000 2160.000000 2154.000000 2177.000000 2223.000000 2285.000000 2314.000000 2366.000000 2464.000000 2505.000000 2573.000000 2629.000000 2668.000000 2705.000000 2728.000000 2747.000000 2826.000000 2932.000000 2964.000000 2957.000000 2973.000000 2990.000000 3001.000000 -9999.0 -9999.0 -9999.0 -9999.0 -9999.0 -9999.0 -9999.0 -9999.0 -9999.0 -9999.0 -9999.0 -9999.0 -9999.0 -9999.0
-9999.0 -9999.0 -9999.0 -9999.0 -9999.0 -9999.0 -9999.0 -9999.0 -9999.0 -9999.0 -9999.0 -9999.0 1674.000000 1727.000000 1743.000000 1869.000000 1943.000000 1961.000000 2019.000000 2052.000000 2061.000000 2183.000000 2270.000000 2277.000000 2309.000000 2377.000000 2384.000000 2347.000000 2303.000000 2296.000000 2338.000000 2409.000000 2452.000000 2533.000000 2575.000000 2561.000000 2469.000000 2424.000000 2397.000000 2340.000000 2274.000000 2238.000000 2187.000000 2168.000000 2171.000000 2193.000000 2239.000000 2266.000000 2346.000000 2430.000000 2459.000000 2522.000000 2567.000000 2598.000000 2635.000000 2682.000000 2712.000000 2809.000000 2910.000000 2960.000000 3023.000000 3070.000000 3072.000000 3056.000000 -9999.0 -9999.0 -9999.0 -9999.0 -9999.0 -9999.0 -9999.0 -9999.0 -9999.0 -9999.0 -9999.0 -9999.0 -9999.0 -9999.0
-9999.0 -9999.0 -9999.0 -9999.0 -9999.0 -9999.0 -9999.0 -9999.0 -9999.0 -9999.0 -9999.0 -9999.0 -9999.0 1756.000000 1776.000000 1919.000000 2001.000000 2007.000000 2036.000000 2120.000000 2127.000000 2166.000000 2278.000000 2321.000000 2340.000000 2397.000000 2414.000000 2353.000000 2324.000000 2321.000000 2340.000000 2415.000000 2459.000000 2526.000000 2600.000000 2574.000000 2499.000000 2450.000000 2420.000000 2350.000000 2292.000000 2256.000000 2204.000000 2189.000000 2178.000000 2195.000000 2229.000000 2251.000000 2339.000000 2418.000000 2449.000000 2497.000000 2537.000000 2555.000000 2615.000000 2672.000000 2705.000000 2787.000000 2878.000000 2929.000000 2991.000000 3074.000000 3107.000000 3085.000000 -9999.0 -9999.0 -9999.0 -9999.0 -9999.0 -9999.0 -9999.0 -9999.0 -9999.0 -9999.0 -9999.0 -9999.0 -9999.0 -9999.0
-9999.0 -9999.0 -9999.0 -9999.0 -9999.0 -9999.0 -9999.0 -9999.0 -9999.0 -9999.0 -9999.0 -9999.0 -9999.0 -9999.0 1838.000000 1945.000000 2077.000000 2100.000000 2123.000000 2169.000000 2189.000000 2250.000000 2297.000000 2334.000000 2408.000000 2451.000000 2436.000000 2372.000000 2354.000000 2364.000000 2358.000000 2411.000000 2447.000000 2510.000000 2613.000000 2615.000000 2566.000000 2499.000000 2475.000000 2405.000000 2328.000000 2296.000000 2249.000000 2210.000000 2193.000000 2202.000000 2221.000000 2237.000000 2314.000000 2380.000000 2409.000000 2453.000000 2522.000000 2547.000000 2604.000000 2677.000000 2757.000000 2841.000000 2906.000000 2928.000000 2989.000000 3066.000000 3118.000000 3176.000000 -9999.0 -9999.0 -9999.0 -9999.0 -9999.0 -9999.0 -9999.0 -9999.0 -9999.0 -9999.0 -9999.0 -9999.0 -9999.0 -9999.0
-9999.0 -9999.0 -9999.0 -9999.0 -9999.0 -9999.0 -9999.0 -9999.0 -9999.0 -9999.0 -9999.0 -9999.0 -9999.0 -9999.0 -9999.0 1982.000000 2082.000000 2131.000000 2211.000000 2261.000000 2262.000000 2309.000000 2352.000000 2374.000000 2446.000000 2512.000000 2490.000000 2409.000000 2402.000000 2393.000000 2387.000000 2410.000000 2439.000000 2519.000000 2620.000000 2653.000000 2633.000000 2555.000000 2525.000000 2453.000000 2364.000000 2332.000000 2300.000000 2247.000000 2220.000000 2212.000000 2228.000000 2240.000000 2279.000000 2324.000000 2350.000000 2403.000000 2500.000000 2543.000000 2618.000000 2710.000000 2738.000000 2803.000000 2882.000000 2932.000000 3026.000000 3101.000000 3103.000000 3094.000000 3111.000000 -9999.0 -9999.0 -9999.0 -9999.0 -9999.0 -9999.0 -9999.0 -9999.0 -9999.0 -9999.0 -9999.0 -9999.0 -9999.0
-9999.0 -9999.0 -9999.0 -9999.0 -9999.0 -9999.0 -9999.0 -9999.0 -9999.0 -9999.0 -9999.0 -9999.0 -9999.0 -9999.0 -9999.0 2040.000000 2108.000000 2178.000000 2250.000000 2308.000000 2295.000000 2331.000000 2378.000000 2402.000000 2474.000000 2535.000000 2507.000000 2432.000000 2418.000000 2411.000000 2399.000000 2416.000000 2445.000000 2520.000000 2605.000000 2623.000000 2649.000000 2582.000000 2546.000000 2473.000000 2380.000000 2354.000000 2318.000000 2261.000000 2237.000000 2216.000000 2231.000000 2241.000000 2276.000000 2315.000000 2338.000000 2415.000000 2484.000000 2519.000000 2610.000000 2699.000000 2733.000000 2804.000000 2906.000000 2948.000000 3028.000000 3084.000000 3078.000000 3065.000000 3079.000000 3098.000000 -9999.0 -9999.0 -9999.0 -9999.0 -9999.0 -9999.0 -9999.0 -9999.0 -9999.0 -9999.0 -9999.0 -9999.0
-9999.0 -9999.0 -9999.0 -9999.0 -9999.0 -9999.0 -9999.0 -9999.0 -9999.0 -9999.0 -9999.0 -9999.0 -9999.0 -9999.0 -9999.0 -9999.0 2203.000000 2255.000000 2332.000000 2373.000000 2375.000000 2386.000000 2440.000000 2459.000000 2517.000000 2589.000000 2556.000000 2490.000000 2467.000000 2452.000000 2444.000000 2444.000000 2461.000000 2548.000000 2563.000000 2568.000000 2641.000000 2618.000000 2580.000000 2504.000000 2432.000000 2409.000000 2356.000000 2327.000000 2305.000000 2248.000000 2234.000000 2246.000000 2277.000000 2308.000000 2332.000000 2385.000000 2468.000000 2514.000000 2624.000000 2711.000000 2758.000000 2842.000000 2935.000000 2978.000000 3036.000000 3014.000000 3017.000000 3017.000000 3019.000000 3023.000000 3070.000000 -9999.0 -9999.0 -9999.0 -9999.0 -9999.0 -9999.0 -9999.0 -9999.0 -9999.0 -9999.0 -9999.0
-9999.0 -9999.0 -9999.0 -9999.0 -9999.0 -9999.0 -9999.0 -9999.0 -9999.0 -9999.0 -9999.0 -9999.0 -9999.0 -9999.0 -9999.0 -9999.0 -9999.0 -9999.0 -9999.0 2443.000000 2469.000000 2492.000000 2503.000000 2527.000000 2582.000000 2642.000000 2620.000000 2566.000000 2522.000000 2511.000000 2500.000000 2489.000000 2491.000000 2543.000000 2581.000000 2576.000000 2624.000000 2646.000000 2599.000000 2533.000000 2482.000000 2471.000000 2457.000000 2429.000000 2369.000000 2298.000000 2256.000000 2252.000000 2278.000000 2309.000000 2332.000000 2387.000000 2453.000000 2491.000000 2591.000000 2695.000000 2765.000000 2860.000000 2957.000000 2975.000000 2961.000000 2933.000000 2942.000000 2964.000000 2956.000000 2953.000000 3001.000000 3074.000000 -9999.0 -9999.0 -9999.0 -9999.0 -9999.0 -9999.0 -9999.0 -9999.0 -9999.0 -9999.0
-9999.0 -9999.0 -9999.0 -9999.0 -9999.0 -9999.0 -9999.0 -9999.0 -9999.0 -9999.0 -9999.0 -9999.0 -9999.0 -9999.0 -9999.0 -9999.0 -9999.0 -9999.0 -9999.0 -9999.0 -9999.0 2528.000000 2552.000000 2561.000000 2625.000000 2673.000000 2652.000000 2608.000000 2572.000000 2546.000000 2525.000000 2518.000000 2515.000000 2550.000000 2606.000000 2606.000000 2631.000000 2663.000000 2624.000000 2565.000000 2514.000000 2512.000000 2506.000000 2437.000000 2392.000000 2318.000000 2267.000000 2263.000000 2283.000000 2313.000000 2335.000000 2388.000000 2455.000000 2493.000000 2600.000000 2716.000000 2781.000000 2868.000000 2956.000000 2950.000000 2924.000000 2894.000000 2909.000000 2927.000000 2921.000000 2921.000000 2976.000000 3056.000000 -9999.0 -9999.0 -9999.0 -9999.0 -9999.0 -9999.0 -9999.0 -9999.0 -9999.0 -9999.0
-9999.0 -9999.0 -9999.0 -9999.0 -9999.0 -9999.0 -9999.0 -9999.0 -9999.0 -9999.0 -9999.0 -9999.0 -9999.0 -9999.0 -9999.0 -9999.0 -9999.0 -9999.0 -9999.0 -9999.0 -9999.0 2607.000000 2650.000000 2664.000000 2706.000000 2755.000000 2746.000000 2715.000000 2654.000000 2628.000000 2598.000000 2579.000000 2581.000000 2606.000000 2644.000000 2638.000000 2646.000000 2750.000000 2737.000000 2670.000000 2585.000000 2596.000000 2572.000000 2489.000000 2445.000000 2363.000000 2305.000000 2297.000000 2303.000000 2318.000000 2353.000000 2386.000000 2441.000000 2509.000000 2636.000000 2730.000000 2768.000000 2854.000000 2902.000000 2892.000000 2833.000000 2831.000000 2843.000000 2852.000000 2855.000000 2871.000000 2931.000000 2974.000000 2999.000000 -9999.0 -9999.0 -9999.0 -9999.0 -9999.0 -9999.0 -9999.0 -9999.0 -9999.0
-9999.0 -9999.0 -9999.0 -9999.0 -9999.0 -9999.0 -9999.0 -9999.0 -9999.0 -9999.0 -9999.0 -9999.0 -9999.0 -9999.0 -9999.0 -9999.0 -9999.0 -9999.0 -9999.0 -9999.0 -9999.0 -9999.0 -9999.0 -9999.0 -9999.0 -9999.0 -9999.0 2779.000000 2749.000000 2731.000000 2670.000000 2668.000000 2663.000000 2659.000000 2678.000000 2697.000000 2707.000000 2791.000000 2765.000000 2674.000000 2603.000000 2581.000000 2581.000000 2552.000000 2525.000000 2423.000000 2351.000000 2346.000000 2345.000000 2398.000000 2403.000000 2418.000000 2465.000000 2501.000000 2611.000000 2725.000000 2757.000000 2832.000000 2830.000000 2811.000000 2771.000000 2781.000000 2777.000000 2783.000000 2807.000000 2824.000000 2917.000000 2945.000000 2973.000000 3101.000000 -9999.0 -9999.0 -9999.0 -9999.0 -9999.0 -9999.0 -9999.0 -9999.0
-9999.0 -9999.0 -9999.0 -9999.0 -9999.0 -9999.0 -9999.0 -9999.0 -9999.0 -9999.0 -9999.0 -9999.0 -9999.0 -9999.0 -9999.0 -9999.0 -9999.0 -9999.0 -9999.0 -9999.0 -9999.0 -9999.0 -9999.0 -9999.0 -9999.0 -9999.0 -9999.0 2824.000000 2774.000000 2739.000000 2693.000000 2677.000000 2690.000000 2682.000000 2712.000000 2720.000000 2726.000000 2789.000000 2757.000000 2671.000000 2595.000000 2584.000000 2579.000000 2562.000000 2525.000000 2433.000000 2376.000000 2374.000000 2380.000000 2413.000000 2416.000000 2415.000000 2456.000000 2487.000000 2617.000000 2687.000000 2719.000000 2810.000000 2778.000000 2757.000000 2742.000000 2746.000000 2749.000000 2780.000000 2813.000000 2831.000000 2902.000000 2948.000000 2988.000000 3074.000000 -9999.0 -9999.0 -9999.0 -9999.0 -9999.0 -9999.0 -9999.0 -9999.0
-9999.0 -9999.0 -9999.0 -9999.0 -9999.0 -9999.0 -9999.0 -9999.0 -9999.0 -9999.0 -9999.0 -9999.0 -9999.0 -9999.0 -9999.0 -9999.0 -9999.0 -9999.0 -9999.0 -9999.0 -9999.0 -9999.0 -9999.0 -9999.0 -9999.0 -9999.0 -9999.0 -9999.0 2828.000000 2791.000000 2744.000000 2752.000000 2761.000000 2774.000000 2750.000000 2746.000000 2754.000000 2797.000000 2750.000000 2674.000000 2626.000000 2615.000000 2610.000000 2614.000000 2580.000000 2530.000000 2468.000000 2440.000000 2448.000000 2468.000000 2446.000000 2421.000000 2456.000000 2493.000000 2571.000000 2624.000000 2693.000000 2732.000000 2699.000000 2689.000000 2698.000000 2701.000000 2722.000000 2804.000000 2861.000000 2869.000000 2893.000000 2978.000000 3039.000000 3105.000000 3223.000000 -9999.0 -9999.0 -9999.0 -9999.0 -9999.0 -9999.0 -9999.0
-9999.0 -9999.0 -9999.0 -9999.0 -9999.0 -9999.0 -9999.0 -9999.0 -9999.0 -9999.0 -9999.0 -9999.0 -9999.0 -9999.0 -9999.0 -9999.0 -9999.0 -9999.0 -9999.0 -9999.0 -9999.0 -9999.0 -9999.0 -9999.0 -9999.0 -9999.0 -9999.0 -9999.0 -9999.0 2876.000000 2798.000000 2812.000000 2843.000000 2849.000000 2806.000000 2799.000000 2799.000000 2847.000000 2792.000000 2708.000000 2673.000000 2669.000000 2686.000000 2646.000000 2613.000000 2560.000000 2499.000000 2488.000000 2478.000000 2504.000000 2491.000000 2457.000000 2475.000000 2487.000000 2529.000000 2581.000000 2630.000000 2676.000000 2669.000000 2672.000000 2668.000000 2688.000000 2704.000000 2780.000000 2847.000000 2876.000000 2928.000000 3022.000000 3082.000000 3151.000000 3206.000000 3259.000000 -9999.0 -9999.0 -9999.0 -9999.0 -9999.0 -9999.0
-9999.0 -9999.0 -9999.0 -9999.0 -9999.0 -9999.0 -9999.0 -9999.0 -9999.0 -9999.0 -9999.0 -9999.0 -9999.0 -9999.0 -9999.0 -9999.0 -9999.0 -9999.0 -9999.0 -9999.0 -9999.0 -9999.0 -9999.0 -9999.0 -9999.0 -9999.0 -9999.0 -9999.0 -9999.0 2903.000000 2822.000000 2847.000000 2855.000000 2875.000000 2839.000000 2830.000000 2828.000000 2868.000000 2815.000000 2734.000000 2699.000000 2699.000000 2697.000000 2643.000000 2617.000000 2574.000000 2517.000000 2504.000000 2496.000000 2507.000000 2519.000000 2480.000000 2477.000000 2484.000000 2520.000000 2576.000000 2612.000000 2671.000000 2664.000000 2659.000000 2667.000000 2698.000000 2719.000000 2765.000000 2833.000000 2882.000000 2954.000000 3040.000000 3091.000000 3150.000000 3194.000000 3258.000000 -9999.0 -9999.0 -9999.0 -9999.0 -9999.0 -9999.0
-9999.0 -9999.0 -9999.0 -9999.0 -9999.0 -9999.0 -9999.0 -9999.0 -9999.0 -9999.0 -9999.0 -9999.0 -9999.0 -9999.0 -9999.0 -9999.0 -9999.0 -9999.0 -9999.0 -9999.0 -9999.0 -9999.0 -9999.0 -9999.0 -9999.0 -9999.0 -9999.0 -9999.0 -9999.0 -9999.0 2909.000000 2936.000000 2941.000000 2917.000000 2895.000000 2889.000000 2896.000000 2872.000000 2834.000000 2793.000000 2757.000000 2740.000000 2743.000000 2693.000000 2665.000000 2621.000000 2588.000000 2554.000000 2517.000000 2515.000000 2532.000000 2528.000000 2512.000000 2526.000000 2551.000000 2593.000000 2623.000000 2665.000000 2640.000000 2646.000000 2669.000000 2712.000000 2741.000000 2801.000000 2861.000000 2894.000000 3012.000000 3127.000000 3191.000000 3188.000000 3206.000000 3256.000000 -9999.0 -9999.0 -9999.0 -9999.0 -9999.0 -9999.0
-9999.0 -9999.0 -9999.0 -9999.0 -9999.0 -9999.0 -9999.0 -9999.0 -9999.0 -9999.0 -9999.0 -9999.0 -9999.0 -9999.0 -9999.0 -9999.0 -9999.0 -9999.0 -9999.0 -9999.0 -9999.0 -9999.0 -9999.0 -9999.0 -9999.0 -9999.0 -9999.0 -9999.0 -9999.0 -9999.0 -9999.0 2945.000000 2937.000000 2964.000000 2930.000000 2935.000000 2971.000000 2914.000000 2892.000000 2852.000000 2819.000000 2821.000000 2802.000000 2761.000000 2725.000000 2652.000000 2625.000000 2583.000000 2535.000000 2532.000000 2534.000000 2560.000000 2577.000000 2568.000000 2578.000000 2607.000000 2633.000000 2627.000000 2629.000000 2635.000000 2689.000000 2751.000000 2770.000000 2820.000000 2906.000000 2942.000000 3027.000000 3136.000000 3174.000000 3231.000000 -9999.0 -9999.0 -9999.0 -9999.0 -9999.0 -9999.0 -9999.0 -9999.0
-9999.0 -9999.0 -9999.0 -9999.0 -9999.0 -9999.0 -9999.0 -9999.0 -9999.0 -9999.0 -9999.0 -9999.0 -9999.0 -9999.0 -9999.0 -9999.0 -9999.0 -9999.0 -9999.0 -9999.0 -9999.0 -9999.0 -9999.0 -9999.0 -9999.0 -9999.0 -9999.0 -9999.0 -9999.0 -9999.0 -9999.0 2978.000000 2952.000000 2963.000000 2964.000000 2966.000000 2996.000000 2951.000000 2926.000000 2901.000000 2859.000000 2864.000000 2847.000000 2791.000000 2750.000000 2655.000000 2629.000000 2601.000000 2547.000000 2542.000000 2544.000000 2565.000000 2593.000000 2585.000000 2595.000000 2609.000000 2609.000000 2608.000000 2618.000000 2623.000000 2710.000000 2794.000000 2805.000000 2866.000000 2952.000000 2985.000000 3060.000000 3153.000000 3200.000000 3233.000000 -9999.0 -9999.0 -9999.0 -9999.0 -9999.0 -9999.0 -9999.0 -9999.0
-9999.0 -9999.0 -9999.0 -9999.0 -9999.0 -9999.0 -9999.0 -9999.0 -9999.0 -9999.0 -9999.0 -9999.0 -9999.0 -9999.0 -9999.0 -9999.0 -9999.0 -9999.0 -9999.0 -9999.0 -9999.0 -9999.0 -9999.0 -9999.0 -9999.0 -9999.0 -9999.0 -9999.0 -9999.0 -9999.0 -9999.0 3056.000000 3040.000000 3023.000000 3068.000000 3053.000000 3079.000000 3045.000000 3019.000000 2925.000000 2964.000000 2960.000000 2943.000000 2854.000000 2781.000000 2681.000000 2646.000000 2632.000000 2579.000000 2565.000000 2560.000000 2556.000000 2556.000000 2559.000000 2566.000000 2578.000000 2590.000000 2593.000000 2623.000000 2648.000000 2773.000000 2840.000000 2817.000000 2861.000000 2974.000000 2991.000000 3052.000000 3130.000000 3161.000000 3248.000000 -9999.0 -9999.0 -9999.0 -9999.0 -9999.0 -9999.0 -9999.0 -9999.0
