ncols 33 
nrows 75 
xllcorner -4.5 
yllcorner -24.5 
cellsize 1 
NODATA_value -9999 
-9999 -9999 -9999 -9999 -9999 -9999 -9999 -9999 -9999 -9999 -9999 -9999 -9999 -9999 -9999 -9999 -9999 -9999 -9999 -9999 -9999 -9999 -9999 -9999 -9999 -9999 -9999 -9999 -9999 -9999 -9999 -9999 -9999
-9999 -9999 -9999 -9999 -9999 -9999 -9999 -9999 -9999 -9999 -9999 -9999 -9999 -9999 -9999 -9999 -9999 -9999 -9999 -9999 -9999 -9999 -9999 -9999 -9999 -9999 -9999 -9999 -9999 -9999 -9999 -9999 -9999
-9999 -9999 13.8 13.7442 13.6982 13.6504 13.5921 13.5011 13.3876 13.2281 13.0474 12.9694 12.9046 12.8743 12.8388 12.6953 12.5035 12.3739 12.3257 12.3372 12.2862 12.244 12.2155 12.179 12.2076 12.1508 12.124 12.2358 12.4015 12.4755 12.5179 -9999 -9999
-9999 -9999 13.6786 13.6529 13.6161 13.5794 13.5457 13.4644 13.3275 13.0897 12.8687 12.8207 12.8381 12.8878 12.8683 12.6803 12.4227 12.2302 12.156 12.249 12.3163 12.1909 12.0653 12.0745 12.1124 11.9729 11.8853 12.1173 12.3861 12.4887 12.4977 -9999 -9999
-9999 -9999 13.522 13.4839 13.4704 13.4568 13.4536 13.3619 13.2901 12.9079 12.5794 12.6521 12.7487 12.8881 12.988 12.6816 12.302 12.1101 11.9307 12.1424 12.4266 12.0711 11.7836 11.9134 12.1301 11.7898 11.6539 12.0029 12.5033 12.4465 12.3763 -9999 -9999
-9999 -9999 13.3624 13.3395 13.312 13.2463 13.2197 13.116 12.9448 12.6753 12.4794 12.5212 12.6666 12.7828 12.8063 12.6516 12.4108 12.1156 11.929 11.9738 12.011 11.8186 11.6108 11.6405 11.7114 11.6514 11.6611 11.9408 12.2429 12.3007 12.251 -9999 -9999
-9999 -9999 13.1682 13.1311 13.0808 13.0204 12.9567 12.812 12.6315 12.3961 12.2208 12.3504 12.5601 12.5932 12.6194 12.4853 12.4787 12.0374 11.8081 11.8111 11.7681 11.6238 11.3745 11.4123 11.4263 11.5165 11.6589 11.8301 12.0764 12.0634 12.0341 -9999 -9999
-9999 -9999 12.9864 12.9219 12.8478 12.7581 12.6592 12.4947 12.2957 12.1047 12.011 12.1077 12.2523 12.2688 12.1791 12.0145 11.8299 11.6893 11.6381 11.7039 11.749 11.6392 11.4769 11.3721 11.3292 11.3688 11.4615 11.5751 11.6801 11.752 11.7865 -9999 -9999
-9999 -9999 12.8123 12.7007 12.6068 12.4956 12.4065 12.1938 11.9903 11.8078 11.6857 11.8264 11.9911 11.929 11.7475 11.5336 11.1449 11.311 11.3824 11.5887 11.8173 11.6628 11.6027 11.3494 11.2179 11.2192 11.2455 11.3107 11.3021 11.4279 11.5206 -9999 -9999
-9999 -9999 12.6431 12.5452 12.4235 12.2165 12.0807 11.9391 11.7289 11.5429 11.4436 11.541 11.669 11.6507 11.5266 11.323 11.1453 11.1421 11.2396 11.3817 11.4883 11.4518 11.3374 11.1882 11.0851 11.0829 11.1256 11.1462 11.1612 11.2177 11.277 -9999 -9999
-9999 -9999 12.4452 12.3485 12.2416 12.0926 11.8889 11.7568 11.5414 11.3632 11.1353 11.2788 11.4412 11.385 11.3604 11.1638 11.0847 10.9819 11.0654 11.1215 11.1886 11.1875 11.0505 10.9886 10.8822 10.9375 11.0376 11.0198 11.0194 11.037 11.0591 -9999 -9999
-9999 -9999 12.307 12.2108 12.0979 11.9664 11.8439 11.6832 11.5288 11.3511 11.1856 11.068 10.9996 11.0167 11.0041 10.867 10.7231 10.6469 10.6768 10.807 10.9467 11.0112 10.9797 10.8524 10.7392 10.7612 10.8318 10.8585 10.8666 10.8744 10.888 -9999 -9999
-9999 -9999 12.0883 12.0198 11.9457 11.8719 11.8469 11.6811 11.5582 11.3955 11.2679 10.9533 10.6105 10.7101 10.7406 10.5507 10.315 10.2942 10.2423 10.5173 10.7473 10.8571 10.9621 10.7225 10.5138 10.5629 10.6452 10.6574 10.6987 10.6634 10.6384 -9999 -9999
-9999 -9999 12.0838 11.8838 11.8207 11.7707 11.7316 11.5653 11.4238 11.3621 11.2667 11.0005 10.7308 10.6081 10.5031 10.3021 10.1248 10.0948 10.1647 10.3278 10.4953 10.6152 10.6484 10.5284 10.3912 10.3567 10.3727 10.3999 10.4263 10.4487 10.4635 -9999 -9999
-9999 -9999 11.8647 11.7956 11.7292 11.6631 11.6118 11.4383 11.2112 11.2838 11.3396 11.0308 10.8161 10.5428 10.3656 10.0989 9.8982 9.9732 10.1028 10.2073 10.2711 10.3685 10.3967 10.3271 10.2084 10.1673 10.1163 10.1623 10.1642 10.2373 10.2575 -9999 -9999
-9999 -9999 11.7869 11.6569 11.5878 11.5251 11.4519 11.3587 11.2322 11.1463 11.0531 10.8576 10.6185 10.3543 10.0987 9.8754 9.7705 9.8632 10.0311 10.1158 10.1529 10.1586 10.1629 10.1445 10.0966 10.0282 9.9845 10.011 10.0555 10.0907 10.1109 -9999 -9999
-9999 -9999 11.628 11.5086 11.4278 11.3512 11.3154 11.2223 11.172 10.9212 10.7516 10.6122 10.4003 10.1446 9.8142 9.6197 9.5255 9.6868 9.9683 9.9782 10.0224 9.9097 9.9359 9.9629 9.9924 9.8841 9.8222 9.8779 9.9709 9.9459 9.9258 -9999 -9999
-9999 -9999 11.4945 11.3922 11.2926 11.1525 11.0426 10.9642 10.804 10.5639 10.3749 10.3783 10.3304 10.003 9.6084 9.3507 9.2448 9.357 9.543 9.652 9.6975 9.6636 9.688 9.7118 9.707 9.6733 9.6587 9.7051 9.7603 9.7721 9.766 -9999 -9999
-9999 -9999 11.0018 10.9938 10.9751 10.9289 10.8433 10.7074 10.4944 10.2309 9.9238 10.1597 10.413 9.8471 9.3238 9.066 8.8622 8.9809 9.1163 9.2318 9.3812 9.2757 9.4303 9.4414 9.4204 9.4403 9.445 9.5175 9.5633 9.562 9.5309 -9999 -9999
-9999 -9999 10.8433 10.7899 10.7907 10.7463 10.7074 10.5551 10.3534 10.1124 9.922 9.9332 9.8739 9.5359 9.1258 8.8536 8.709 8.6582 8.6669 8.7347 8.8191 8.9579 9.1204 9.1638 9.1691 9.218 9.2852 9.3404 9.3677 9.3664 9.3444 -9999 -9999
-9999 -9999 10.5773 10.5757 10.5451 10.62 10.6201 10.5131 10.2683 10.1102 9.8797 9.7488 9.4983 9.178 8.8204 8.6222 8.5449 8.4065 8.2551 8.3455 8.2908 8.6233 8.9001 8.8835 8.87 8.984 9.1206 9.1512 9.176 9.1486 9.1078 -9999 -9999
-9999 -9999 10.426 10.3238 10.3262 10.4998 10.6244 10.5322 10.3526 10.1462 9.9221 9.5916 9.219 8.8153 8.4819 8.296 8.2261 8.2355 8.2623 8.2435 8.2486 8.3723 8.5213 8.5623 8.5921 8.7149 8.8462 8.909 8.9263 8.9098 8.883 -9999 -9999
-9999 -9999 9.8848 9.9339 9.9573 10.1851 10.5765 10.253 10.2254 9.9106 9.8443 9.2396 8.8738 8.3719 8.0344 7.935 7.8758 8.0572 8.3221 8.1838 8.1605 8.1299 8.2315 8.268 8.2575 8.4486 8.5955 8.6354 8.6625 8.6357 8.6053 -9999 -9999
-9999 -9999 9.4518 9.431 9.3701 9.4333 9.4307 9.3398 9.2329 9.0976 8.8774 8.4375 7.992 7.786 7.6918 7.6116 7.6111 7.7424 7.8978 7.9264 7.8982 7.8639 7.9271 8.037 8.1405 8.2286 8.2938 8.3179 8.3218 8.3367 8.3539 -9999 -9999
-9999 -9999 9.0591 8.97 8.7784 8.6446 8.2406 8.3017 8.1034 8.1448 7.9662 7.6009 6.9891 7.2279 7.3988 7.3121 7.2516 7.3993 7.517 7.6148 7.6372 7.5201 7.6308 7.8369 8.0303 8.0009 8.0005 7.9878 7.9726 7.9641 7.9891 -9999 -9999
-9999 -9999 8.6015 8.4736 8.2387 8.1376 7.9506 7.6185 7.3626 7.4108 7.4358 7.1497 6.853 6.8941 7.0176 7.0148 7.0042 7.1056 7.2348 7.3155 7.3302 7.3358 7.4779 7.6119 7.6905 7.6865 7.6615 7.6675 7.6826 7.6848 7.7355 -9999 -9999
-9999 -9999 8.1578 7.9623 7.7003 7.6575 7.7919 7.0196 6.4984 6.8009 7.195 6.8154 6.5807 6.6493 6.7961 6.7599 6.6973 6.8491 6.999 7.0476 7.0827 7.0046 7.3658 7.3541 7.3691 7.3718 7.3176 7.413 7.4064 7.4556 7.4827 -9999 -9999
-9999 -9999 7.7881 7.4961 7.1214 6.8559 6.5549 6.2621 6.0794 6.1899 6.336 6.3035 6.2773 6.3526 6.4725 6.5204 6.5489 6.6118 6.6876 6.7467 6.7791 6.81 6.9273 6.9824 7.0178 7.1173 7.2164 7.2934 7.3389 7.2858 7.2715 -9999 -9999
-9999 -9999 7.1062 6.8938 6.5398 6.1806 5.7168 5.715 5.649 5.7324 5.6655 5.7946 5.8919 6.0341 6.1998 6.2751 6.3714 6.3601 6.3747 6.4217 6.4845 6.4774 6.5356 6.6126 6.6272 6.8724 7.11 7.1101 7.2641 7.0403 6.9483 -9999 -9999
-9999 -9999 6.8053 6.6585 6.3206 6.0791 5.8541 5.8164 5.7938 5.6013 5.4195 5.4209 5.5153 5.6959 5.8676 5.9634 6.0153 6.0543 6.0704 6.0601 6.0502 6.0614 6.1359 6.3268 6.5164 6.6031 6.6389 6.6392 6.6316 6.6113 6.6479 -9999 -9999
-9999 -9999 6.5243 6.3606 6.1451 6.1213 6.2318 6.0256 6.117 5.564 5.2658 5.2665 5.2685 5.4748 5.6355 5.7101 5.6719 5.7729 5.797 5.707 5.6207 5.6689 5.6914 6.055 6.4444 6.2936 6.1559 6.1445 5.9822 6.1681 6.2899 -9999 -9999
-9999 -9999 5.9612 5.9286 5.8571 5.9646 6.0045 5.7712 5.5278 5.3543 5.2641 5.266 5.3286 5.4426 5.5461 5.5826 5.5791 5.5738 5.5197 5.3825 5.2943 5.4058 5.5912 5.7242 5.8268 5.8853 5.9087 5.8905 5.8785 5.9304 6.0368 -9999 -9999
-9999 -9999 5.2558 5.3502 5.3931 5.5868 5.7907 5.33 4.8647 5.1106 5.3276 5.3451 5.4615 5.4538 5.5118 5.4938 5.4915 5.4108 5.3372 5.1152 4.8998 5.1786 5.5518 5.393 5.2251 5.4963 5.7148 5.7197 5.7787 5.7838 5.8212 -9999 -9999
-9999 -9999 5.1 5.1132 5.068 5.1297 5.1101 4.9464 4.863 5.004 5.1939 5.2667 5.3008 5.3239 5.3399 5.3253 5.2894 5.1961 5.0791 4.9373 4.8492 4.9215 5.0316 5.081 5.1112 5.2141 5.3415 5.4779 5.5876 5.6091 5.6533 -9999 -9999
-9999 -9999 5.1258 5.0526 4.8698 4.7651 4.5083 4.6532 4.7857 4.913 5.1182 5.1017 5.072 5.1036 5.1266 5.0678 5.0745 4.9523 4.8712 4.8434 4.8451 4.8469 4.8486 4.8989 5.0298 5.0122 4.9863 5.2148 5.4305 5.3469 5.278 -9999 -9999
-9999 -9999 4.9773 4.8528 4.6376 4.5449 4.4713 4.5051 4.6125 4.7259 4.8297 4.8596 4.8522 4.8486 4.8095 4.7049 4.6224 4.6725 4.7608 4.852 4.911 4.9166 4.9067 4.9259 4.9275 4.881 4.8625 4.956 5.0638 5.0621 5.0495 -9999 -9999
-9999 -9999 4.7863 4.6854 4.4781 4.4049 4.419 4.3873 4.4545 4.5198 4.5582 4.6253 4.626 4.6172 4.5629 4.416 4.3755 4.5021 4.7092 4.9198 5.0893 5.0784 5.162 4.9834 4.8855 4.775 4.6829 4.7191 4.7475 4.7683 4.7729 -9999 -9999
-9999 -9999 4.723 4.5691 4.3415 4.2614 4.201 4.2166 4.2853 4.3421 4.4011 4.4659 4.4908 4.4364 4.3696 4.373 4.4413 4.6005 4.7922 4.9464 5.0432 5.0104 4.9403 4.8674 4.7901 4.6511 4.5359 4.5181 4.5392 4.5048 4.5169 -9999 -9999
-9999 -9999 4.3683 4.3453 4.2061 4.155 4.0617 4.0797 4.1532 4.169 4.2401 4.3196 4.4147 4.2984 4.1682 4.3749 4.693 4.6658 4.828 4.8479 4.9676 4.7951 4.6091 4.6358 4.6821 4.4783 4.306 4.2746 4.3451 4.1874 4.1759 -9999 -9999
-9999 -9999 4.3752 4.3713 4.2502 4.256 4.1947 4.0592 3.9421 3.9524 4.027 4.1178 4.1815 4.1723 4.1647 4.2449 4.3536 4.4045 4.4476 4.4839 4.5384 4.4957 4.3964 4.33 4.3248 4.244 4.0953 3.9343 3.8154 3.7939 3.8683 -9999 -9999
-9999 -9999 4.2781 4.3315 4.3079 4.4115 4.4867 4.1068 3.7113 3.769 3.8198 3.9057 3.9766 4.0187 4.0705 4.0293 3.9792 4.0213 4.0087 4.0087 4.1514 4.2204 4.1861 3.989 4.0623 4.0489 3.9152 3.6534 3.3729 3.453 3.5575 -9999 -9999
-9999 -9999 4.0652 4.3023 4.3051 4.4398 4.4598 4.1811 3.8598 3.7088 3.6683 3.6972 3.754 3.7993 3.8205 3.7689 3.7074 3.6796 3.687 3.787 3.9376 4.0224 4.0295 3.9873 3.9958 3.9276 3.7908 3.5938 3.4291 3.3704 3.4137 -9999 -9999
-9999 -9999 3.8992 4.0318 4.1976 4.3744 4.5062 4.1833 3.8894 3.6412 3.4826 3.459 3.5015 3.5013 3.5598 3.461 3.4172 3.3699 3.3623 3.557 3.7867 3.8285 3.888 3.8419 3.9501 3.7444 3.6735 3.5352 3.5362 3.3405 3.2749 -9999 -9999
-9999 -9999 3.6869 3.8567 3.9794 4.1192 4.1417 3.9854 3.7475 3.4753 3.262 3.1526 3.1068 3.0834 3.0733 3.0635 3.0552 3.0799 3.1413 3.2869 3.4512 3.5097 3.4885 3.4107 3.3325 3.3053 3.2905 3.2644 3.258 3.1775 3.1184 -9999 -9999
-9999 -9999 3.4007 3.5109 3.6841 3.757 3.7741 3.6403 3.5253 3.1947 2.9499 2.8165 2.7107 2.6825 2.6125 2.7375 2.7308 2.8611 2.9 2.9949 3.1507 3.1494 3.0825 2.9183 2.6494 2.8254 2.8915 2.8947 2.9816 2.954 2.8496 -9999 -9999
-9999 -9999 3.1514 3.2769 3.3143 3.3119 3.2751 3.1475 2.9657 2.7919 2.6324 2.5084 2.4254 2.4113 2.4611 2.6204 2.7597 2.7735 2.746 2.7538 2.7882 2.787 2.7266 2.5823 2.4693 2.5141 2.6029 2.675 2.7437 2.7211 2.6615 -9999 -9999
-9999 -9999 2.8275 2.8561 2.923 2.9155 2.8255 2.7135 2.426 2.4415 2.3465 2.2765 2.1769 2.2398 2.2935 2.552 2.8635 2.6742 2.5505 2.472 2.4347 2.4187 2.4273 2.2911 2.2304 2.2534 2.3586 2.4199 2.5381 2.4936 2.4423 -9999 -9999
-9999 -9999 2.5471 2.5755 2.5725 2.595 2.5955 2.5202 2.3985 2.2935 2.1996 2.1466 2.1231 2.142 2.2221 2.3318 2.4219 2.3595 2.2432 2.1274 2.0403 2.0078 1.9817 1.9391 1.9121 1.9395 2.0003 2.0554 2.1088 2.15 2.1875 -9999 -9999
-9999 -9999 2.2342 2.2119 2.1879 2.3026 2.44 2.387 2.403 2.2285 2.0713 1.9848 2.0435 1.9582 2.0457 1.9607 1.9676 1.9363 1.8872 1.7681 1.6275 1.6379 1.5771 1.6161 1.5762 1.6172 1.6455 1.6635 1.68 1.7936 1.8704 -9999 -9999
-9999 -9999 2.018 1.9822 1.9646 1.996 2.0533 2.1158 2.1575 2.1119 2.0336 1.9323 1.7828 1.5063 1.4028 1.4111 1.4324 1.4704 1.4789 1.4407 1.3972 1.3908 1.399 1.4134 1.3987 1.3379 1.2865 1.2982 1.372 1.495 1.6193 -9999 -9999
-9999 -9999 1.7169 1.7055 1.6978 1.6817 1.6645 1.7944 1.9201 1.9493 1.9562 1.7681 1.5701 0.768 0.7679 0.8593 0.9118 1.0522 1.1239 1.1563 1.175 1.1964 1.2468 1.2562 1.2821 1.0892 0.9276 0.9778 1.0819 1.2442 1.3879 -9999 -9999
-9999 -9999 1.5624 1.5159 1.4732 1.4253 1.4163 1.527 1.6503 1.7127 1.6848 1.5235 1.2229 0.6739 0.4364 0.5109 0.6397 0.7633 0.8557 0.9051 0.9401 0.9751 1.0141 1.0407 1.0048 0.8392 0.6881 0.7107 0.8446 1.0483 1.2433 -9999 -9999
-9999 -9999 1.4524 1.3987 1.2712 1.2196 1.149 1.3111 1.4172 1.4618 1.4411 1.2672 1.0367 0.2526 0.2102 0.3423 0.4759 0.5778 0.6606 0.7164 0.7386 0.7794 0.7866 0.8358 0.8279 0.6378 0.417 0.5213 0.6339 0.9075 1.16 -9999 -9999
-9999 -9999 0.469377189556607 0.27101258398542 0.416894983691457 0.836946481189085 0.690767493381211 0.410756708626907 0.734511644867314 0.962899730516458 1.10010636898245 0.272771059419242 1.54821186323741 0.464099762711484 0.380175792623953 0.484765637906376 0.0365589193606531 0.408866060707611 0.781345058499094 0.932560654794079 0.60824521717331 0.7020226824677 0.659754619884862 1.38426966768723 0.203286151984565 1.02943750606783 0.696509678087694 0.453183757303202 1.06669911376663 0.581678353560775 0.3624948995943 -9999 -9999
-9999 -9999 0.393666520419224 0.3984375230812 0.402369890787576 0.287262000428305 0.634300261785057 0.584099302728238 0.113215341839134 0.381147236002453 0.0734514074058902 0.977546345368564 0.996793591941775 0.725284187334181 0.287310769635727 0.292130915133811 0.771619672902856 0.189373271518104 0.959922162084646 0.858617131802492 0.738267750510237 0.558038940697454 0.0267389083359614 0.595649226438717 0.661469246878376 0.347415169812034 0.606453362614006 0.0951425399865402 0.441326364335295 0.300408294325319 0.709932837999185 -9999 -9999
-9999 -9999 0.888239225429344 -0.122340233987177 -0.215938464204568 0.14853183088462 0.13388847188411 0.18235794640246 0.0870105891763465 -0.335871726446053 -0.213889279102114 0.142102891227567 0.175143062352253 0.712742404345152 0.863745044322331 0.297246939354225 0.429740276551408 -0.0881425907207208 -0.244628009765015 0.932164833626876 0.385848463931834 0.347125443655009 0.0306343897525592 0.328197732784692 0.536821239116639 0.481536645036979 0.798120075876588 0.680266128223424 0.00573954525753928 0.554127975269513 -0.146415524007133 -9999 -9999
-9999 -9999 0.101526222446092 -0.211025658867373 0.921984126187982 -0.324287317886939 0.325899073617968 -0.0619247228389286 -0.0261691431809211 -0.518251098312068 1.34115102712509 -0.264442432442088 0.286338412638123 0.350613832245553 -0.370708072979074 0.58231455713882 -0.0299067216285582 -0.33755646768404 0.332328304552411 0.0958602264903295 0.474588717295521 -0.338535397243463 0.0626820558850891 0.571393652119226 -0.00419495883367771 -0.0787926715428794 0.121392077173774 0.367611028106582 -0.0339313248341426 -0.394190482189987 0.654189893716793 -9999 -9999
-9999 -9999 -0.0803437614068923 -0.375273003061149 0.341399834078227 -0.549945546718496 -0.217099661363688 -0.50296004691919 0.590026101018911 -0.757066960766528 -0.2938774482528 -0.223274463002031 -0.292893093027226 -0.273077024249649 -0.200899282117215 0.76566242234692 -0.0847005756591845 -0.301815169194714 -0.335343096597542 -0.151217159339813 0.188798064292259 0.055267044784215 0.131337802577755 -0.411801379252135 -0.383121870704354 -0.55815462475619 0.147816321014677 -0.720951977925973 0.304915834694939 0.207841563770705 -0.594680038366126 -9999 -9999
-9999 -9999 0.334816896905596 -0.995213701238393 -0.774861499026736 -0.217070205476074 -0.206023628926037 -0.353349914873704 -0.590646334938195 -0.543320398059147 -0.219142827309823 -0.412837304404157 -0.521949397896767 -0.3123836014185 0.408046826670917 0.269333482355194 -0.283337959115199 -0.206259310108112 -0.0684117645522726 -1.02123131117792 -0.417770448633513 0.203253038641704 -0.981080919791351 -0.511819697386327 -0.271107073363101 0.137349043922727 -0.0312235827915759 -0.372945889476253 -0.120686838531035 0.00212434111541615 -0.296224569993542 -9999 -9999
-9999 -9999 -0.36038602425252 -0.21303582976336 -0.69811778386164 -0.365354024828396 -0.111750842802107 -0.847481071334635 -0.448564338927125 -1.11211853681325 -0.291708456145301 -0.106636282456818 -0.848927071519173 -0.816081984270191 -0.580076043028717 -0.592656351755633 -0.454181636185655 -1.32811916766285 -0.564376918716491 -0.501761123742954 -0.392739277848942 -0.362215748878786 -0.677344609428954 0.396767269299821 -0.369025779222348 -0.250917039265007 -0.182935502891994 -0.890897165215211 -0.0570769979566763 -1.00923784651973 -0.332206655105984 -9999 -9999
-9999 -9999 -1.2400660597672 -0.68548195203545 -0.927902714068271 -0.724724509734493 -0.575299591589332 -1.3975856758467 -0.71496688761958 -0.476484323404621 -0.934598409024373 -0.712317411889516 -0.977933682146786 -1.02586858118 -1.27712324699287 -1.43222110866457 -0.103904868994941 -0.662567471899672 -0.497971223673366 -0.969032084001044 -1.11508731636296 -1.18944437445367 -0.449706009693188 -0.741096949800312 -0.400091646974404 -0.0712905795604213 -0.970026938709944 -1.55507731002435 -0.691063340197902 -0.495417600528788 -0.516044571739334 -9999 -9999
-9999 -9999 -1.21884797710892 -1.39529250642243 -0.645346684064428 -0.589708845475887 -1.07773379856255 -1.09896220994052 -1.32636985637803 -0.129192529700167 -0.748215585467619 -0.655477581945869 -0.304822792582072 -0.604416451152956 -1.21021373056766 -1.10230642430081 -1.0359450344282 -0.466780740902962 -0.428134949758465 -1.33112145604498 -0.615257435234225 -1.12063009224596 -1.16096536967974 -0.311602069535249 -1.75272943427149 -0.924825902095875 -0.31421665570866 -0.891605539544952 -0.789889299342752 -0.000122025774363266 -1.06827789869735 -9999 -9999
-9999 -9999 -1.32939810051211 -0.664931060725005 -1.18774763473617 -0.353602900820993 -0.705987159745647 -0.795839420705172 -1.18303199314636 -1.65835911399434 -1.0108927650595 -1.35036655192615 -1.17627581739704 -1.55223143604264 -0.965344991964018 -1.12027319195481 -1.0894409700225 -0.358494362521591 -1.15230142075468 -1.22549205144954 -1.33541000352881 -1.01983099766069 -1.06628438434281 -1.71758376250619 -1.7949486486302 -0.715294466791978 -1.30409943749659 -1.18612217759982 -1.37349903637539 -1.37301365785002 -1.12406777367794 -9999 -9999
-9999 -9999 -0.881407938900046 -1.19326307052071 -1.2609601461916 -1.55198842144499 -0.971560057478243 -1.58495448766995 -0.795208223518354 -1.05201073426677 -1.44421362440953 -1.276158918942 -1.31338055527306 -0.595516211106071 -1.50685788893975 -1.02961749698012 -0.903184895751273 -0.851265398190102 -0.962155040440246 -0.963177643200706 -0.415085488772121 -1.61298746793691 -1.16755031016687 -1.43449233137918 -0.800740057115783 -0.587647638095039 -1.40136328853011 -1.39807320332038 -1.12331364187245 -1.02966002136081 -0.984165242575546 -9999 -9999
-9999 -9999 -1.42417398411314 -1.68022318703534 -1.57601647629538 -2.46770158070437 -1.35044113347871 -1.32715129095239 -1.38832463930669 -1.2641725188254 -1.53932668836632 -1.69180193326111 -1.46957746324319 -1.60016862301091 -1.78453943287894 -1.18852283553172 -1.15268802401508 -1.26896889723241 -2.02951300296154 -2.34398650170632 -2.21038767595169 -2.40845880161535 -1.46013616110304 -1.41689775543406 -1.15564079862065 -1.67490997145505 -1.01589500122952 -1.48034314383643 -1.76282311871037 -1.87068301130659 -2.13430898581892 -9999 -9999
-9999 -9999 -1.6130119624864 -1.41972773453874 -1.78646852832129 -1.37647995500193 -1.67636678103915 -2.40227197553883 -1.75358551369517 -1.63982124444811 -1.78302662297042 -1.73272631899597 -1.28782944188247 -1.68582580361637 -1.9041727828962 -1.50215335509124 -1.3219281755313 -2.4448296021156 -2.05184216354184 -1.93676595137435 -1.95111814811654 -1.42397961548878 -1.51429406996263 -1.65239684368146 -1.59951619796939 -2.2869586545738 -1.26374173349454 -1.4246777769747 -2.32512424916961 -1.33543730927719 -2.07535404874582 -9999 -9999
-9999 -9999 -1.93128352998276 -1.63122311431666 -1.43945801824548 -2.25184425709715 -2.22005939435596 -1.99628241990615 -2.13974781564887 -2.36881700888765 -1.14236952767118 -2.32463071822764 -2.17633094714537 -2.26331060097181 -1.93917594526306 -2.5200875547512 -2.20033895064265 -2.20973768299877 -1.38056990526597 -1.92895539362979 -1.65184889927062 -2.29887049337797 -2.0225356547638 -2.36774557835388 -1.69493582525075 -2.06814108015763 -2.40072721210518 -1.89417343516492 -1.924515511858 -1.87688133365048 -1.849286674692 -9999 -9999
-9999 -9999 -2.39673493177604 -1.85818588329051 -2.26768302407982 -2.44841020655409 -1.64741799509258 -1.97633081544909 -2.98219566679154 -2.22611431611141 -2.46926035922739 -2.69191182050183 -2.56746404041773 -2.40398671556686 -1.55442015122406 -1.84721412471949 -1.39647308987819 -2.31705462118604 -2.031857959391 -2.52863956534455 -1.97995705123782 -2.40366281759557 -2.34115094268107 -2.17188029057074 -1.82081029227119 -2.26309688970761 -2.52076650341119 -2.42042644917183 -1.41861506409735 -1.53353905587172 -2.35331265914078 -9999 -9999
-9999 -9999 -1.68560891955382 -2.11501524748909 -1.79134742641582 -1.983280816644 -2.61895352787728 -2.26651614130945 -1.9419281407408 -2.49389195525507 -2.81277827826772 -1.60338503999154 -1.72909259532365 -2.89919334889738 -2.41888954651293 -2.55885847168018 -2.35818314403957 -2.10919598980127 -3.18664686723038 -2.25371160315369 -2.61473929563911 -1.7962620843871 -3.41768910112839 -2.8055155238954 -3.42463837780805 -2.32495752863997 -2.91524826658051 -2.67155628655609 -2.07111795791331 -2.95469522175738 -1.84861342137268 -9999 -9999
-9999 -9999 -2.39446258293144 -2.37254125513938 -3.19465023583814 -2.70045527587948 -1.73390317714862 -2.5477961686821 -3.16019963084834 -2.36899430191541 -2.57433916105875 -2.35424669022402 -2.76160123222256 -2.66063456043219 -2.16653926705806 -2.52076886100909 -1.85920594591904 -2.63042951728932 -3.12242962261143 -2.42825157552826 -2.97883839161534 -2.891791512591 -2.62545217684066 -2.31045871327738 -2.15501401829617 -1.91963118618853 -2.51801458228069 -2.64064648071031 -2.13351920712088 -2.60917040859387 -2.3258827930628 -9999 -9999
-9999 -9999 -3.56287993275937 -2.81817196057039 -2.56539131911144 -3.27124572557601 -2.19474039613572 -3.04447085033798 -2.50465841650637 -2.9395828416405 -2.67257273716577 -3.28319169145371 -3.07667221782264 -2.63015040462081 -2.54735120772208 -2.76481725387478 -3.32214587290915 -3.28607607924115 -2.87246753616681 -2.80688210297085 -2.73747793313296 -2.46329863033989 -2.6257313977064 -2.36983660054966 -2.9835875558202 -2.92148232427986 -2.72951549493697 -2.67275406068898 -2.65365893156593 -2.99998444800098 -2.76574952407476 -9999 -9999
-9999 -9999 -2.72459881442063 -3.11844352551236 -2.95039230356456 -2.9279306131951 -3.09097213957298 -3.33103742891861 -2.25238967659394 -2.61683698758786 -2.82814386221418 -3.23777289272439 -3.48217935353329 -2.87201966697589 -3.04324853983415 -2.83141119759408 -2.99061301007651 -2.34023105260299 -2.6603119749083 -3.9629421916728 -3.00441120062843 -3.49172316140177 -2.78948524943194 -3.86875021659617 -2.90864991779239 -2.85297865966203 -2.85645448863645 -3.40531487007562 -3.23675291965653 -3.07594450582766 -3.58832513448828 -9999 -9999
-9999 -9999 -3.3885224982496 -3.35242676333202 -3.11923942387662 -3.25797316519856 -3.60498237009844 -3.60408619354177 -3.76820704157153 -3.35012381583887 -3.38288214420184 -3.66717185080608 -3.70597132538565 -3.50923666033974 -3.80300801004128 -3.19402145993451 -2.71497327375825 -2.84733021393202 -3.24350361444993 -2.19827183949675 -3.90363898587589 -3.34228911520777 -3.42077351355319 -2.72053348939221 -3.31907072899057 -3.29268962675358 -2.98778453439099 -3.27573065057017 -3.28274175727885 -3.44982372386614 -3.19346421395491 -9999 -9999
-9999 -9999 -9999 -9999 -9999 -9999 -9999 -9999 -9999 -9999 -9999 -9999 -9999 -9999 -9999 -9999 -9999 -9999 -9999 -9999 -9999 -9999 -9999 -9999 -9999 -9999 -9999 -9999 -9999 -9999 -9999 -9999 -9999
-9999 -9999 -9999 -9999 -9999 -9999 -9999 -9999 -9999 -9999 -9999 -9999 -9999 -9999 -9999 -9999 -9999 -9999 -9999 -9999 -9999 -9999 -9999 -9999 -9999 -9999 -9999 -9999 -9999 -9999 -9999 -9999 -9999
