ncols         284
nrows         31
xllcorner     628250
yllcorner     5040750
cellsize      250.000000
NODATA_value  -9999.0
-124.500000 -122.600000 -116.700000 -104.500000 -101.600000 -98.700000 -93.200000 -44.900000 61.800000 95.400000 163.200000 76.900000 57.700000 51.800000 44.800000 39.600000 55.500000 42.200000 47.500000 66.800000 71.200000 77.200000 78.400000 83.000000 87.800000 103.900000 106.800000 111.900000 113.800000 123.900000 145.000000 199.300000 223.300000 215.200000 220.800000 208.600000 205.800000 205.000000 209.500000 214.700000 217.700000 224.500000 249.900000 225.000000 227.800000 210.000000 205.000000 224.100000 200.000000 199.400000 197.700000 206.500000 192.300000 166.300000 192.100000 95.900000 101.500000 174.400000 327.400000 485.200000 600.000000 741.600000 725.800000 684.200000 658.000000 705.200000 672.200000 678.900000 742.400000 704.600000 653.100000 651.800000 552.100000 493.900000 528.400000 611.900000 636.600000 527.900000 404.100000 275.000000 366.300000 415.200000 502.200000 586.500000 600.400000 607.700000 624.700000 674.900000 609.100000 546.400000 601.900000 616.900000 601.700000 599.700000 475.200000 468.500000 405.100000 488.500000 554.800000 602.400000 601.600000 636.800000 650.000000 671.500000 611.500000 544.200000 504.300000 418.300000 300.000000 324.400000 376.400000 431.300000 500.000000 561.400000 492.500000 426.600000 482.800000 551.400000 552.400000 575.000000 601.200000 648.500000 657.700000 701.600000 731.400000 670.300000 652.300000 656.500000 680.000000 555.700000 526.700000 652.300000 711.300000 707.600000 758.300000 716.300000 650.000000 715.200000 685.100000 670.000000 715.300000 633.800000 742.600000 752.400000 730.600000 768.900000 811.000000 854.100000 911.900000 846.300000 767.400000 725.100000 682.100000 644.200000 544.500000 512.600000 500.000000 480.200000 452.700000 464.400000 536.600000 590.100000 603.300000 665.500000 724.900000 737.100000 770.600000 784.300000 850.800000 800.400000 744.800000 759.400000 758.400000 688.600000 571.000000 465.100000 427.500000 420.700000 448.500000 440.400000 403.300000 380.700000 411.700000 441.800000 478.000000 502.700000 568.000000 534.400000 463.700000 400.000000 382.700000 327.300000 277.700000 225.500000 200.600000 296.300000 398.200000 452.800000 456.500000 515.400000 594.000000 608.500000 590.500000 541.400000 499.100000 457.500000 436.600000 406.700000 370.300000 346.100000 325.000000 326.600000 316.500000 300.300000 303.300000 367.700000 362.700000 304.600000 285.100000 254.300000 207.700000 152.100000 142.400000 134.200000 125.100000 125.200000 129.400000 125.000000 125.000000 126.400000 125.300000 125.000000 125.000000 125.000000 179.800000 225.400000 217.900000 191.100000 162.400000 67.200000 50.000000 50.000000 50.000000 50.000000 53.800000 99.700000 125.000000 93.100000 53.700000 50.000000 49.800000 86.000000 111.500000 143.600000 132.400000 91.700000 47.600000 40.000000 40.200000 39.800000 40.000000 39.200000 38.500000 36.100000 36.600000 37.100000 37.500000 39.700000 85.600000 89.200000 49.000000 41.000000 39.700000 37.400000 36.800000 36.900000 34.600000 36.500000 36.200000 35.600000 35.000000 35.000000 35.000000 35.000000
-105.700000 -100.700000 -85.000000 -85.000000 -85.000000 -85.000000 -85.000000 -0.300000 70.600000 75.100000 82.100000 48.900000 45.300000 43.400000 26.700000 21.500000 28.000000 29.600000 36.300000 61.600000 69.100000 118.000000 120.600000 155.700000 150.600000 160.300000 168.300000 163.700000 165.000000 157.300000 174.900000 229.200000 211.800000 217.200000 217.300000 208.300000 205.000000 205.000000 207.500000 212.100000 216.000000 219.800000 240.200000 275.600000 249.600000 210.000000 221.100000 202.400000 199.600000 196.200000 208.500000 195.400000 192.200000 138.300000 97.000000 97.900000 111.100000 183.600000 417.700000 523.600000 624.700000 578.800000 541.400000 539.800000 597.000000 594.400000 621.500000 680.600000 702.500000 637.400000 608.000000 602.700000 620.100000 535.300000 498.400000 571.600000 583.200000 436.500000 298.600000 273.900000 294.800000 390.600000 496.300000 525.300000 511.000000 550.100000 605.800000 585.400000 525.800000 528.900000 577.900000 587.900000 585.400000 542.000000 474.800000 387.800000 429.100000 495.500000 515.000000 571.100000 598.600000 600.700000 642.800000 696.900000 617.300000 528.000000 477.600000 378.300000 300.000000 327.300000 352.000000 401.000000 464.100000 540.600000 424.500000 462.100000 525.000000 563.100000 595.600000 609.100000 603.100000 626.600000 643.300000 685.600000 704.900000 669.400000 690.700000 720.800000 677.200000 650.000000 489.600000 530.100000 609.000000 690.800000 705.100000 706.000000 641.800000 660.000000 650.000000 649.100000 645.600000 641.300000 686.700000 672.700000 722.600000 776.600000 800.000000 843.800000 925.900000 902.800000 827.100000 784.900000 706.700000 628.200000 603.300000 587.800000 525.900000 484.100000 457.400000 456.400000 538.600000 600.400000 604.900000 630.800000 655.200000 665.400000 750.000000 722.800000 795.900000 820.400000 753.000000 729.000000 700.200000 686.000000 571.500000 493.900000 455.000000 404.400000 429.200000 457.200000 417.300000 363.400000 374.200000 403.400000 438.700000 476.000000 544.900000 516.600000 495.100000 398.200000 339.900000 275.000000 256.700000 225.800000 204.000000 236.700000 356.400000 393.100000 416.300000 476.100000 548.800000 562.000000 550.500000 514.400000 478.100000 466.100000 416.900000 399.200000 375.000000 355.700000 328.800000 297.300000 275.300000 276.000000 280.000000 302.500000 323.900000 306.600000 261.300000 225.400000 197.400000 154.100000 139.900000 127.400000 125.000000 125.000000 128.200000 124.900000 124.200000 123.400000 123.500000 123.100000 123.000000 125.000000 250.800000 235.800000 136.900000 106.600000 75.000000 75.000000 100.300000 57.300000 48.600000 48.000000 49.300000 56.400000 110.500000 114.200000 88.600000 49.900000 48.200000 75.200000 111.700000 170.700000 150.400000 111.400000 92.400000 40.000000 40.000000 38.300000 39.000000 39.900000 38.300000 35.400000 35.800000 36.100000 37.200000 38.600000 49.600000 46.800000 47.000000 75.000000 41.100000 37.100000 36.300000 34.100000 31.200000 33.900000 36.000000 35.700000 35.000000 35.000000 35.000000 35.100000
-99.800000 -88.500000 -85.000000 -85.000000 -85.000000 -85.000000 -85.000000 -3.700000 52.600000 60.100000 43.400000 32.600000 22.100000 15.000000 15.000000 15.000000 15.000000 18.600000 28.300000 43.600000 73.100000 194.300000 185.000000 261.800000 277.800000 255.200000 248.100000 249.400000 227.400000 220.000000 230.900000 228.300000 214.900000 224.700000 214.700000 209.600000 205.000000 205.000000 205.000000 208.600000 213.000000 226.500000 257.100000 252.500000 245.600000 211.600000 219.600000 201.300000 198.900000 195.000000 195.000000 195.600000 190.900000 144.600000 97.000000 98.600000 105.300000 183.000000 427.700000 560.600000 499.200000 469.400000 475.600000 493.200000 500.300000 570.200000 658.400000 700.700000 669.000000 606.500000 576.300000 587.100000 610.700000 572.400000 448.800000 412.500000 479.100000 358.000000 250.000000 327.100000 315.700000 378.500000 425.100000 450.700000 493.700000 579.500000 583.900000 537.900000 528.400000 492.400000 541.500000 564.400000 553.700000 524.100000 444.200000 384.700000 412.200000 462.700000 449.400000 562.500000 549.300000 597.600000 625.100000 679.900000 670.000000 578.200000 525.500000 473.600000 300.000000 300.000000 311.500000 382.500000 452.500000 410.700000 355.400000 427.300000 472.900000 477.000000 553.800000 587.700000 550.000000 625.100000 624.700000 682.100000 728.900000 753.700000 743.100000 689.600000 657.400000 625.000000 621.400000 470.400000 493.300000 663.800000 674.700000 688.900000 683.300000 628.700000 600.000000 582.600000 576.300000 632.900000 627.700000 679.700000 748.100000 775.000000 773.800000 815.200000 906.100000 878.700000 817.800000 762.900000 723.300000 686.700000 668.900000 649.500000 583.000000 475.600000 456.000000 450.000000 467.500000 479.300000 484.200000 525.600000 560.100000 628.700000 663.100000 741.900000 768.400000 767.600000 703.600000 699.900000 627.200000 667.400000 554.100000 528.500000 517.600000 431.000000 467.900000 475.000000 469.500000 371.500000 367.400000 382.600000 426.600000 483.400000 539.400000 529.200000 497.700000 434.300000 378.900000 341.000000 316.800000 238.700000 219.300000 222.200000 342.800000 341.900000 368.200000 454.800000 529.200000 532.500000 525.400000 513.700000 506.400000 438.100000 414.900000 400.000000 375.000000 350.100000 324.400000 300.000000 275.000000 250.600000 271.000000 294.900000 306.900000 309.800000 275.000000 226.500000 200.100000 162.500000 135.200000 125.000000 124.700000 124.200000 123.500000 122.300000 121.600000 120.000000 120.600000 121.100000 120.900000 145.700000 280.400000 249.900000 205.900000 152.400000 148.900000 120.900000 117.400000 50.000000 48.800000 48.500000 49.800000 70.600000 111.600000 136.500000 111.100000 77.700000 50.000000 57.800000 129.900000 174.000000 127.500000 76.800000 47.100000 38.500000 40.000000 38.200000 39.300000 61.300000 40.000000 35.000000 35.000000 35.000000 36.100000 38.000000 37.300000 37.700000 38.900000 48.700000 39.000000 36.400000 35.800000 36.400000 36.100000 36.200000 36.900000 36.800000 35.700000 34.800000 34.500000 34.800000
-93.100000 -85.000000 -85.000000 -85.000000 -85.000000 -85.000000 -72.500000 -24.500000 16.000000 33.800000 30.800000 26.600000 15.000000 15.000000 15.000000 15.000000 15.000000 15.000000 17.500000 42.100000 106.800000 275.000000 237.900000 271.800000 263.100000 227.800000 225.000000 220.400000 220.000000 220.000000 238.200000 247.500000 228.000000 250.000000 221.900000 209.400000 205.600000 204.900000 203.100000 205.000000 209.600000 225.600000 247.000000 248.400000 235.800000 223.200000 206.400000 200.100000 195.700000 193.000000 191.800000 195.000000 194.900000 153.000000 106.300000 95.000000 98.400000 283.700000 408.600000 418.100000 423.900000 437.900000 439.400000 461.900000 523.600000 602.100000 647.700000 648.400000 630.100000 564.000000 535.500000 546.500000 595.200000 629.600000 555.100000 446.800000 328.700000 357.400000 250.000000 321.600000 396.900000 409.200000 457.300000 495.100000 500.000000 517.300000 536.400000 488.300000 471.500000 508.200000 500.400000 558.800000 530.800000 423.800000 398.500000 363.900000 383.000000 423.300000 492.400000 512.200000 531.500000 573.900000 625.000000 706.900000 749.000000 665.200000 553.800000 454.600000 320.600000 286.000000 292.100000 307.700000 319.300000 318.400000 440.900000 508.100000 574.200000 599.600000 573.000000 532.400000 550.000000 574.900000 617.200000 632.800000 698.100000 752.700000 694.100000 651.100000 645.700000 657.900000 688.200000 544.500000 450.200000 569.400000 654.000000 679.800000 679.200000 683.200000 624.600000 650.000000 550.000000 635.400000 698.500000 719.200000 725.300000 722.600000 762.000000 787.000000 868.700000 817.900000 777.200000 719.600000 717.600000 700.400000 656.200000 617.500000 557.100000 472.700000 450.600000 450.000000 450.800000 499.600000 589.000000 623.900000 635.200000 593.100000 643.900000 693.400000 724.900000 697.800000 678.400000 655.900000 599.900000 635.600000 561.100000 521.900000 484.500000 446.100000 362.800000 446.500000 462.100000 405.400000 347.800000 369.700000 427.000000 481.700000 548.100000 573.800000 506.000000 452.900000 394.600000 372.600000 313.300000 258.300000 232.300000 200.900000 244.200000 296.400000 324.100000 421.900000 545.400000 520.900000 529.400000 541.500000 511.900000 453.100000 450.200000 453.300000 400.600000 376.400000 368.400000 332.100000 269.500000 243.300000 254.100000 271.700000 278.900000 263.600000 274.400000 227.100000 179.300000 150.000000 125.000000 125.000000 122.900000 122.200000 121.300000 120.000000 119.700000 118.600000 118.200000 119.100000 120.000000 201.400000 250.500000 242.500000 204.300000 158.400000 152.600000 84.600000 54.100000 50.200000 50.000000 50.000000 92.200000 89.600000 167.500000 149.500000 114.900000 83.200000 50.000000 50.000000 85.100000 143.600000 113.000000 100.600000 45.100000 39.900000 40.000000 44.000000 40.000000 46.900000 79.200000 35.800000 34.900000 34.500000 35.000000 35.400000 35.000000 35.000000 37.000000 37.900000 38.100000 36.000000 35.400000 35.900000 36.700000 37.100000 37.500000 37.700000 35.800000 34.700000 34.200000 34.400000
-85.100000 -79.700000 -79.700000 -79.600000 -84.600000 -83.500000 -58.600000 -25.300000 11.800000 16.700000 15.100000 15.000000 15.000000 15.000000 15.000000 15.000000 15.000000 15.000000 18.900000 37.300000 69.900000 96.500000 156.100000 217.700000 215.900000 205.900000 205.700000 211.700000 210.800000 231.900000 230.000000 249.900000 266.300000 275.000000 256.800000 211.500000 206.800000 203.300000 201.100000 200.200000 205.800000 222.000000 245.200000 246.500000 246.400000 233.900000 209.800000 197.000000 190.300000 190.900000 192.200000 251.400000 207.600000 182.300000 139.500000 175.700000 95.500000 276.900000 331.200000 351.900000 382.000000 393.400000 417.500000 476.700000 517.000000 566.100000 589.400000 575.000000 603.100000 528.500000 507.900000 526.200000 582.800000 624.900000 524.100000 435.700000 349.400000 250.600000 258.400000 356.000000 395.900000 450.100000 498.700000 538.400000 505.300000 449.500000 497.600000 433.300000 427.300000 457.200000 482.000000 526.600000 486.900000 411.900000 352.800000 352.200000 415.700000 474.900000 461.800000 425.100000 544.300000 580.000000 622.600000 728.600000 768.800000 699.600000 578.600000 496.200000 441.600000 299.200000 276.200000 292.400000 343.500000 410.700000 460.900000 496.700000 549.200000 594.900000 597.200000 594.600000 597.400000 579.600000 584.600000 627.400000 687.000000 735.700000 731.800000 725.000000 719.900000 673.900000 658.700000 596.900000 461.800000 512.000000 603.600000 646.400000 684.400000 651.200000 647.300000 618.200000 533.600000 618.200000 661.800000 691.900000 687.700000 690.000000 703.400000 757.000000 844.000000 803.200000 716.600000 675.400000 647.600000 670.800000 654.000000 532.800000 474.900000 450.000000 450.000000 450.000000 527.100000 598.900000 603.200000 649.300000 700.000000 670.900000 699.500000 683.800000 775.300000 705.400000 670.700000 638.600000 587.500000 535.800000 506.400000 469.600000 448.400000 440.300000 406.100000 360.400000 400.200000 346.300000 328.100000 374.100000 429.400000 488.900000 529.300000 584.700000 526.600000 468.700000 401.900000 369.300000 359.300000 292.100000 225.000000 200.400000 200.000000 233.900000 314.500000 385.300000 447.400000 479.000000 538.800000 559.000000 547.600000 498.400000 493.600000 454.900000 401.300000 410.400000 377.500000 337.300000 314.900000 259.600000 220.500000 225.100000 229.400000 236.600000 275.000000 255.400000 214.400000 160.800000 127.700000 124.900000 121.700000 120.500000 118.900000 116.700000 115.000000 115.600000 115.600000 116.600000 119.100000 254.400000 259.200000 192.000000 174.400000 118.300000 82.400000 50.000000 50.000000 50.000000 50.000000 50.000000 75.000000 98.300000 133.000000 123.600000 92.200000 81.700000 50.000000 50.000000 79.000000 157.200000 135.300000 139.700000 116.300000 89.400000 44.900000 102.100000 47.600000 37.000000 37.400000 88.600000 34.800000 34.200000 34.700000 35.000000 35.000000 35.000000 35.000000 35.800000 36.100000 35.600000 34.800000 35.200000 36.100000 36.300000 36.800000 36.800000 35.100000 35.000000 34.600000 34.700000
-68.200000 -63.300000 -63.200000 -63.400000 -63.800000 -57.700000 -44.300000 -18.500000 12.100000 15.000000 15.000000 15.000000 15.000000 15.000000 15.000000 15.000000 15.000000 15.900000 29.100000 41.800000 59.000000 74.000000 92.700000 132.600000 145.100000 169.700000 187.400000 181.800000 215.000000 214.100000 235.000000 242.400000 303.500000 270.900000 237.800000 213.700000 207.700000 203.100000 200.000000 200.000000 201.600000 214.400000 230.600000 225.500000 253.700000 246.400000 205.200000 198.200000 190.000000 190.000000 211.200000 254.200000 237.600000 194.300000 154.900000 165.200000 163.600000 181.500000 280.900000 317.400000 345.000000 362.500000 421.000000 463.000000 502.900000 514.800000 536.400000 607.000000 632.100000 498.500000 480.500000 520.900000 572.700000 589.200000 552.600000 482.800000 394.800000 248.100000 320.600000 400.000000 408.600000 445.700000 553.600000 524.000000 483.500000 391.500000 427.000000 422.400000 385.600000 406.000000 484.000000 490.800000 431.700000 395.300000 340.400000 391.700000 445.400000 433.700000 404.600000 459.100000 478.100000 539.500000 629.000000 733.000000 754.100000 702.700000 588.300000 527.600000 480.300000 373.500000 275.000000 295.400000 366.300000 454.800000 504.600000 549.700000 553.600000 582.900000 637.600000 653.200000 632.500000 594.700000 601.500000 634.800000 722.200000 751.500000 792.900000 818.200000 743.200000 663.900000 629.200000 576.100000 483.200000 466.200000 648.900000 649.000000 651.700000 650.000000 657.900000 623.400000 530.500000 594.900000 609.400000 606.600000 649.900000 680.400000 725.000000 760.700000 789.900000 733.300000 744.600000 725.000000 659.900000 583.800000 611.500000 601.400000 572.700000 450.000000 441.000000 436.800000 492.300000 553.200000 638.500000 615.700000 649.500000 706.900000 759.000000 796.100000 827.600000 794.900000 764.400000 701.800000 679.000000 658.000000 582.800000 429.000000 413.100000 399.800000 371.200000 325.000000 360.400000 355.200000 312.700000 360.700000 436.500000 477.100000 525.100000 585.400000 584.100000 536.100000 496.900000 397.500000 346.300000 293.500000 237.700000 200.000000 200.000000 207.700000 264.800000 319.100000 389.400000 450.200000 520.000000 523.200000 485.100000 507.400000 493.900000 429.400000 423.200000 402.200000 375.000000 341.900000 303.600000 263.700000 232.700000 200.000000 224.800000 245.800000 274.100000 249.900000 210.200000 168.600000 147.300000 125.000000 121.100000 115.100000 115.000000 114.400000 113.500000 113.500000 113.600000 114.500000 117.800000 275.000000 268.600000 232.800000 169.800000 109.000000 50.000000 117.900000 133.600000 108.500000 50.000000 50.000000 57.200000 68.600000 119.900000 152.600000 76.900000 50.000000 50.000000 50.000000 98.500000 149.200000 215.100000 198.000000 191.000000 122.600000 117.200000 133.600000 122.100000 41.700000 35.200000 35.300000 43.600000 34.900000 34.800000 35.000000 35.000000 35.000000 35.000000 35.000000 35.100000 35.000000 35.000000 35.000000 35.000000 35.500000 36.000000 35.700000 35.000000 35.300000 35.200000 35.000000
-47.600000 -47.600000 -47.600000 -46.300000 -41.400000 -30.000000 -23.500000 -6.300000 14.900000 15.000000 15.000000 15.000000 11.700000 12.500000 13.400000 14.200000 14.900000 18.600000 28.500000 38.400000 50.700000 65.300000 77.400000 119.800000 120.100000 129.500000 145.300000 162.200000 216.400000 210.000000 236.600000 247.500000 306.900000 277.500000 225.900000 212.800000 212.800000 210.100000 199.700000 197.200000 195.800000 199.600000 215.400000 216.900000 221.700000 250.800000 228.600000 202.400000 190.000000 192.400000 246.700000 296.100000 263.900000 226.100000 211.100000 187.800000 175.000000 187.400000 174.100000 241.400000 317.800000 373.200000 412.600000 444.300000 455.900000 519.100000 599.100000 659.100000 624.100000 477.700000 426.900000 475.700000 546.100000 551.800000 530.600000 450.100000 301.700000 225.200000 350.000000 355.300000 402.700000 438.500000 483.900000 464.000000 438.500000 372.800000 353.900000 359.900000 370.600000 423.800000 475.200000 419.200000 378.000000 351.800000 325.300000 383.400000 390.800000 354.200000 370.700000 409.600000 526.100000 578.800000 623.300000 725.100000 756.100000 684.900000 566.200000 492.800000 444.400000 320.400000 275.000000 281.000000 367.800000 462.200000 498.000000 500.500000 525.000000 564.400000 646.600000 671.900000 678.400000 652.700000 638.500000 645.900000 687.300000 700.300000 762.700000 812.300000 745.200000 691.000000 635.800000 578.900000 480.500000 454.300000 616.500000 609.300000 625.000000 635.000000 652.000000 601.200000 530.600000 570.500000 553.900000 591.000000 645.000000 683.900000 686.200000 724.400000 755.900000 723.600000 701.400000 692.300000 675.600000 623.200000 491.100000 510.200000 457.200000 438.000000 430.600000 425.000000 462.700000 609.500000 624.500000 552.000000 628.500000 644.300000 703.500000 795.100000 784.500000 767.800000 694.400000 683.100000 685.300000 602.900000 588.500000 452.600000 398.400000 359.000000 349.400000 310.100000 312.900000 350.000000 300.000000 352.300000 419.600000 499.600000 530.500000 587.700000 626.300000 566.000000 520.500000 420.300000 355.400000 321.400000 269.600000 200.000000 200.000000 200.000000 223.400000 298.200000 403.700000 424.400000 457.800000 461.100000 412.700000 449.900000 493.800000 423.300000 400.600000 357.700000 326.600000 311.300000 278.500000 253.600000 231.500000 192.100000 178.200000 193.100000 190.800000 224.100000 236.200000 210.000000 150.600000 124.400000 118.700000 113.000000 112.600000 112.100000 111.300000 111.700000 111.900000 113.000000 147.800000 245.100000 250.100000 228.800000 170.500000 96.200000 167.700000 162.400000 147.300000 119.100000 57.400000 50.000000 50.000000 50.700000 114.600000 175.000000 120.800000 63.200000 50.000000 50.000000 68.900000 124.200000 183.300000 199.000000 173.900000 178.900000 182.300000 173.200000 144.900000 74.600000 38.100000 35.200000 35.000000 34.900000 34.600000 34.300000 34.200000 34.200000 34.700000 35.000000 35.000000 35.000000 35.000000 35.000000 35.000000 35.000000 35.000000 35.000000 35.000000 35.000000 35.000000 35.000000
-30.400000 -30.100000 -31.500000 -23.400000 12.800000 -1.300000 -3.300000 9.000000 15.000000 15.000000 12.900000 9.700000 6.400000 6.900000 7.800000 8.700000 12.200000 19.200000 29.300000 39.000000 52.800000 61.000000 71.100000 102.400000 115.000000 114.000000 123.000000 144.300000 167.500000 210.000000 224.500000 250.100000 288.100000 258.300000 221.800000 222.500000 303.400000 357.900000 272.500000 195.300000 195.000000 194.600000 202.600000 206.000000 211.700000 215.800000 233.400000 233.200000 186.800000 188.200000 233.600000 264.800000 286.000000 296.400000 286.000000 253.100000 229.000000 200.800000 100.000000 296.700000 316.400000 327.000000 405.400000 437.300000 475.000000 532.600000 609.400000 643.600000 609.900000 459.700000 399.200000 442.500000 479.700000 518.100000 489.400000 417.400000 247.100000 258.400000 289.500000 337.400000 380.400000 411.500000 472.500000 431.600000 400.200000 355.100000 337.800000 332.600000 349.400000 404.700000 443.300000 395.200000 324.300000 315.300000 360.900000 338.100000 320.400000 351.200000 396.600000 438.600000 520.300000 578.600000 670.900000 725.000000 735.500000 704.300000 571.800000 499.000000 442.800000 449.700000 291.200000 266.400000 282.000000 368.200000 502.100000 550.000000 550.700000 564.600000 602.100000 619.300000 682.300000 658.600000 616.200000 597.700000 615.100000 703.700000 720.500000 764.800000 727.900000 647.000000 619.600000 622.900000 473.600000 440.500000 562.300000 602.800000 624.600000 616.200000 623.700000 581.900000 533.000000 501.200000 587.100000 623.700000 630.600000 673.100000 675.900000 686.000000 727.900000 686.100000 653.700000 625.000000 644.200000 612.300000 540.600000 450.000000 449.900000 425.000000 425.000000 425.000000 445.600000 535.800000 597.200000 538.000000 623.500000 608.800000 679.200000 750.000000 651.100000 719.300000 645.200000 619.700000 619.900000 607.600000 548.700000 449.400000 422.500000 434.400000 409.600000 389.700000 329.800000 296.200000 286.100000 322.500000 409.600000 444.000000 525.200000 578.900000 619.200000 621.500000 532.500000 450.200000 396.500000 346.900000 325.000000 272.900000 200.000000 200.000000 198.100000 295.500000 305.800000 386.000000 395.700000 399.200000 339.800000 422.200000 469.300000 453.700000 427.100000 395.200000 373.800000 343.000000 287.400000 264.200000 233.500000 182.100000 175.000000 161.800000 156.700000 183.300000 201.800000 191.400000 141.800000 113.200000 111.400000 110.200000 110.300000 109.400000 109.300000 109.900000 110.100000 110.400000 114.300000 120.400000 131.000000 225.000000 210.400000 175.200000 205.800000 175.600000 150.000000 125.000000 62.600000 50.000000 50.000000 48.000000 67.500000 144.700000 123.000000 50.000000 47.400000 48.900000 72.800000 113.100000 173.900000 190.200000 186.000000 168.800000 170.000000 163.500000 130.000000 107.500000 40.700000 37.400000 35.000000 34.800000 33.900000 33.300000 33.400000 33.600000 34.900000 34.600000 35.000000 35.000000 35.000000 34.800000 34.800000 34.500000 34.500000 35.000000 35.000000 35.000000 35.000000 35.000000
-21.300000 -17.500000 -16.200000 2.000000 41.600000 26.300000 22.200000 26.800000 25.700000 15.000000 8.800000 3.300000 0.400000 1.100000 3.000000 7.200000 11.800000 19.000000 29.300000 39.600000 55.000000 59.900000 66.400000 83.400000 113.600000 106.300000 111.100000 122.600000 150.000000 207.500000 211.400000 259.200000 244.400000 248.600000 232.700000 299.600000 365.600000 383.300000 373.900000 198.400000 193.600000 191.900000 193.800000 196.400000 204.500000 216.900000 241.800000 242.700000 206.100000 177.500000 206.100000 230.500000 247.700000 250.800000 236.700000 218.200000 195.600000 169.300000 102.900000 263.800000 315.600000 352.700000 403.700000 449.900000 480.600000 571.800000 623.900000 625.000000 599.800000 469.400000 372.200000 388.300000 436.900000 483.900000 456.900000 360.100000 230.600000 229.700000 293.700000 345.600000 358.000000 401.300000 473.400000 415.700000 357.100000 334.200000 314.100000 300.000000 346.200000 362.900000 419.300000 376.800000 299.400000 286.000000 320.900000 343.700000 337.300000 369.100000 415.300000 486.900000 555.600000 639.100000 699.600000 738.200000 725.000000 709.600000 594.200000 525.400000 478.200000 475.000000 384.000000 258.900000 260.900000 325.300000 487.100000 541.700000 554.500000 572.000000 575.000000 619.400000 624.900000 604.400000 600.000000 575.900000 588.100000 616.300000 689.300000 746.300000 737.100000 662.500000 601.300000 569.900000 454.000000 407.200000 550.600000 587.600000 582.700000 597.300000 625.000000 575.900000 575.500000 477.700000 559.000000 584.400000 641.800000 611.700000 630.400000 685.000000 666.100000 667.800000 655.000000 646.500000 564.700000 538.100000 475.700000 469.500000 547.100000 522.700000 423.400000 420.700000 423.500000 492.200000 521.900000 527.700000 498.700000 591.400000 665.300000 712.500000 642.200000 630.300000 676.000000 608.300000 537.400000 549.500000 537.900000 548.400000 466.900000 476.300000 472.000000 473.400000 398.200000 333.000000 275.000000 302.800000 351.900000 421.600000 506.000000 548.700000 602.100000 608.900000 550.300000 460.900000 370.000000 309.700000 254.600000 254.700000 205.000000 197.800000 178.800000 206.600000 273.700000 312.400000 327.200000 337.400000 314.700000 393.500000 429.300000 438.300000 449.900000 434.800000 393.900000 369.200000 311.300000 277.600000 233.900000 181.400000 170.300000 150.600000 150.000000 146.500000 140.100000 148.600000 115.900000 106.300000 107.100000 108.000000 106.700000 106.300000 107.000000 107.900000 108.500000 110.000000 110.000000 116.200000 150.100000 241.100000 249.800000 254.300000 213.700000 181.400000 154.400000 132.700000 108.500000 78.000000 46.900000 44.800000 48.000000 76.200000 150.000000 100.500000 48.800000 49.600000 76.200000 145.600000 185.600000 178.500000 181.200000 92.800000 118.900000 106.600000 94.200000 92.100000 69.100000 38.100000 35.000000 34.900000 34.200000 33.700000 33.300000 33.700000 35.000000 33.700000 34.300000 35.000000 34.800000 34.500000 34.400000 34.300000 34.800000 35.000000 35.000000 31.400000 35.000000 35.000000
-11.400000 -7.500000 -1.400000 21.100000 48.300000 54.900000 49.300000 49.800000 52.600000 13.800000 3.900000 0.000000 0.000000 0.000000 0.200000 5.100000 10.500000 17.400000 27.900000 38.400000 50.800000 58.100000 63.700000 73.400000 91.200000 96.700000 97.800000 112.500000 128.500000 167.900000 196.100000 234.000000 240.000000 240.000000 256.300000 370.500000 313.500000 336.900000 391.100000 206.500000 192.000000 190.000000 189.600000 193.400000 197.600000 204.900000 208.600000 198.700000 192.800000 180.300000 179.600000 217.500000 221.300000 221.600000 216.200000 146.200000 109.100000 100.000000 214.500000 295.300000 338.800000 360.700000 404.000000 467.500000 521.000000 574.700000 624.300000 636.800000 547.100000 465.400000 381.500000 329.900000 439.000000 468.700000 404.000000 257.200000 216.400000 237.600000 298.100000 305.800000 344.300000 380.100000 436.900000 383.400000 321.200000 321.200000 302.400000 281.900000 304.200000 357.800000 394.900000 359.800000 297.300000 271.700000 300.100000 286.400000 318.700000 372.500000 406.200000 502.000000 600.000000 641.900000 696.200000 725.000000 726.200000 650.200000 525.900000 495.800000 462.300000 464.400000 454.600000 282.600000 250.000000 315.800000 499.100000 500.400000 533.400000 554.200000 573.800000 544.000000 581.200000 554.900000 562.300000 530.600000 576.100000 597.700000 664.700000 717.000000 729.000000 676.600000 649.900000 613.300000 529.000000 350.200000 506.500000 528.200000 566.800000 593.200000 625.000000 624.700000 575.800000 530.600000 514.200000 566.400000 600.000000 568.900000 625.800000 631.300000 652.200000 674.900000 629.300000 600.000000 576.500000 552.000000 548.000000 556.900000 600.000000 529.200000 416.600000 406.400000 421.100000 520.800000 458.100000 476.400000 580.900000 583.800000 608.100000 649.700000 681.100000 571.600000 618.800000 649.200000 660.800000 593.300000 638.700000 628.600000 538.400000 526.500000 493.900000 471.900000 440.000000 346.200000 279.000000 305.700000 347.100000 445.800000 522.600000 550.600000 573.800000 600.000000 532.400000 447.900000 352.500000 300.200000 325.300000 314.000000 283.400000 201.300000 175.000000 175.000000 201.200000 250.000000 260.200000 265.200000 260.100000 319.300000 343.500000 360.900000 379.100000 444.800000 400.000000 376.400000 308.200000 278.300000 226.600000 250.000000 264.300000 226.600000 149.500000 134.800000 123.800000 119.700000 108.200000 105.000000 104.800000 104.100000 103.200000 103.600000 105.000000 106.200000 106.900000 109.300000 111.500000 124.100000 192.000000 252.400000 275.100000 272.400000 215.500000 175.300000 150.400000 125.000000 102.300000 63.200000 50.000000 48.500000 50.000000 50.100000 127.400000 113.000000 50.000000 50.000000 86.600000 137.200000 183.800000 160.400000 172.600000 149.100000 62.400000 40.100000 39.000000 38.200000 37.600000 36.000000 35.000000 35.000000 34.500000 34.100000 34.000000 35.000000 35.900000 34.800000 34.900000 34.700000 34.900000 34.600000 34.100000 34.800000 35.100000 35.000000 35.000000 38.400000 50.400000 47.200000
-0.100000 0.900000 13.700000 45.000000 50.300000 56.600000 58.500000 58.700000 54.700000 20.000000 0.400000 0.000000 0.000000 0.000000 0.000000 2.200000 8.100000 14.300000 24.000000 35.300000 46.700000 56.800000 61.300000 69.400000 81.100000 84.100000 85.200000 108.900000 123.400000 143.100000 174.200000 216.600000 247.400000 243.400000 293.200000 346.000000 288.500000 330.700000 350.000000 201.800000 190.000000 190.000000 187.000000 187.500000 192.300000 193.600000 196.000000 192.600000 190.500000 180.400000 175.000000 196.100000 213.400000 214.500000 202.000000 115.100000 100.000000 100.000000 269.600000 297.500000 346.400000 384.200000 409.600000 472.700000 534.500000 592.300000 632.400000 593.600000 494.200000 450.600000 404.600000 302.400000 400.200000 440.900000 334.200000 205.800000 200.100000 263.200000 255.700000 294.100000 327.300000 357.800000 391.000000 316.000000 293.800000 294.600000 281.000000 273.300000 284.300000 347.500000 378.200000 381.100000 281.100000 250.000000 298.200000 276.200000 309.100000 339.700000 422.800000 492.300000 621.300000 649.600000 700.000000 725.200000 682.700000 586.500000 491.800000 470.000000 433.200000 421.100000 399.800000 263.800000 250.000000 366.000000 489.500000 479.900000 500.100000 534.000000 547.100000 497.800000 550.600000 556.700000 510.300000 488.700000 536.800000 583.800000 644.000000 678.300000 705.400000 646.300000 617.700000 609.000000 555.900000 407.400000 405.100000 532.400000 550.000000 589.900000 622.800000 601.900000 554.800000 533.500000 454.400000 545.300000 544.900000 573.100000 594.000000 574.800000 639.300000 653.800000 635.100000 634.100000 622.600000 601.200000 584.800000 601.800000 575.300000 506.500000 407.200000 400.000000 415.900000 465.800000 425.000000 494.300000 533.200000 522.800000 543.900000 590.900000 674.800000 585.300000 602.700000 703.400000 724.500000 639.500000 693.600000 645.000000 598.300000 549.300000 525.000000 472.200000 431.800000 367.900000 283.500000 272.800000 363.100000 429.800000 453.400000 508.400000 529.400000 578.200000 530.100000 451.900000 368.000000 331.400000 360.600000 312.000000 284.700000 252.500000 175.000000 175.000000 175.000000 177.000000 208.700000 215.100000 212.100000 233.800000 265.200000 283.300000 321.500000 351.500000 368.600000 395.300000 366.900000 327.100000 296.200000 312.700000 303.900000 249.700000 159.100000 125.100000 120.000000 111.400000 108.300000 104.900000 102.100000 100.200000 100.400000 101.600000 103.300000 104.800000 105.300000 107.800000 189.800000 197.000000 243.700000 299.600000 248.800000 231.200000 200.500000 172.700000 135.200000 76.700000 74.900000 50.000000 63.700000 50.000000 50.000000 50.000000 120.600000 103.100000 48.400000 46.600000 54.900000 104.900000 160.600000 155.200000 157.600000 171.500000 112.300000 67.100000 35.400000 35.000000 35.000000 34.700000 34.500000 34.300000 33.800000 33.500000 33.500000 34.700000 38.100000 34.900000 34.600000 34.300000 34.600000 34.900000 34.700000 35.000000 69.900000 89.600000 92.500000 65.300000 99.600000 75.300000
0.000000 7.400000 29.900000 48.900000 54.800000 58.800000 60.000000 58.100000 33.700000 7.600000 0.000000 0.000000 0.000000 0.000000 0.000000 0.000000 5.100000 11.300000 19.400000 31.500000 43.600000 56.100000 61.600000 66.600000 74.400000 78.600000 84.900000 98.600000 114.200000 128.200000 150.400000 180.000000 216.400000 229.500000 271.200000 288.000000 282.900000 297.000000 350.000000 202.200000 190.000000 190.000000 186.900000 181.900000 181.900000 185.200000 186.900000 188.100000 184.700000 177.200000 171.400000 190.000000 208.200000 209.300000 171.700000 100.000000 100.000000 100.400000 266.500000 298.500000 329.700000 371.600000 423.800000 475.100000 529.100000 576.000000 603.500000 576.800000 506.400000 452.600000 393.700000 275.500000 321.400000 402.600000 290.100000 200.000000 240.000000 314.900000 323.700000 322.700000 340.600000 387.000000 355.800000 290.100000 260.100000 267.400000 250.000000 275.000000 297.000000 347.100000 374.700000 363.100000 290.300000 250.000000 254.000000 278.800000 345.500000 424.000000 451.300000 571.800000 650.000000 673.500000 692.400000 701.100000 568.500000 503.300000 463.100000 426.200000 371.800000 371.500000 350.200000 286.500000 250.000000 286.500000 403.700000 456.800000 482.000000 511.900000 502.300000 477.700000 507.500000 500.800000 501.800000 459.100000 519.200000 545.300000 573.100000 619.000000 653.300000 600.200000 589.300000 557.700000 558.500000 391.500000 408.000000 531.500000 550.000000 551.000000 557.900000 600.000000 558.000000 512.900000 473.500000 464.400000 496.500000 567.500000 547.700000 577.300000 588.700000 616.400000 622.200000 663.000000 681.400000 624.300000 590.700000 619.400000 564.100000 465.300000 400.000000 400.000000 406.400000 411.900000 408.600000 501.300000 458.300000 450.000000 482.700000 580.900000 647.600000 537.200000 594.800000 664.800000 749.600000 745.100000 715.700000 661.500000 627.900000 550.600000 476.800000 443.100000 440.200000 356.300000 307.500000 250.000000 333.700000 400.200000 396.600000 448.600000 527.200000 556.800000 550.400000 473.100000 417.700000 384.300000 361.700000 309.400000 275.700000 206.400000 249.600000 176.700000 175.000000 175.000000 175.000000 173.800000 180.100000 190.100000 219.100000 233.100000 263.200000 282.600000 313.300000 374.400000 353.700000 327.600000 304.900000 296.400000 263.600000 204.800000 160.100000 129.900000 139.500000 109.300000 106.000000 104.000000 100.500000 99.700000 99.600000 100.100000 101.500000 103.100000 103.700000 104.900000 176.700000 237.400000 264.100000 255.400000 217.200000 173.300000 195.700000 173.700000 150.000000 131.600000 122.200000 93.700000 75.000000 50.700000 50.000000 50.000000 85.600000 107.300000 48.600000 45.200000 48.500000 105.400000 159.100000 151.400000 105.000000 97.700000 101.200000 45.200000 36.100000 35.000000 35.000000 34.500000 34.200000 33.800000 33.200000 32.900000 33.500000 34.900000 41.500000 33.700000 33.900000 34.100000 34.400000 34.800000 34.900000 35.000000 50.600000 94.700000 144.400000 125.000000 88.700000 38.000000
10.100000 10.900000 28.100000 48.300000 55.000000 54.200000 49.500000 35.400000 10.200000 0.100000 0.000000 0.000000 0.000000 0.000000 0.000000 0.000000 2.000000 8.300000 14.500000 25.200000 36.300000 48.400000 58.600000 66.300000 69.800000 74.500000 85.300000 99.200000 111.400000 125.700000 143.900000 170.000000 218.300000 262.900000 278.200000 298.700000 300.900000 294.500000 301.200000 203.100000 199.200000 200.000000 194.100000 190.000000 187.800000 175.500000 185.000000 184.800000 181.500000 175.300000 165.000000 198.100000 202.800000 172.700000 115.600000 100.000000 103.000000 112.600000 250.900000 286.300000 338.800000 375.500000 430.300000 487.400000 549.700000 558.300000 569.300000 525.900000 481.200000 441.500000 390.100000 300.900000 248.500000 325.600000 261.400000 200.000000 214.300000 261.100000 263.900000 299.800000 311.000000 375.000000 327.500000 274.000000 236.400000 229.100000 250.600000 283.600000 302.400000 341.600000 374.300000 345.400000 265.800000 245.800000 247.200000 282.800000 323.400000 359.000000 432.100000 534.600000 579.200000 585.400000 646.400000 630.800000 521.700000 455.800000 402.000000 389.300000 352.700000 297.000000 258.300000 250.000000 250.000000 250.000000 327.400000 468.400000 498.500000 475.600000 465.600000 457.600000 475.000000 481.500000 455.500000 408.800000 482.000000 495.700000 524.900000 629.100000 707.600000 661.600000 600.500000 567.500000 517.700000 437.800000 357.400000 485.700000 497.300000 521.200000 570.700000 604.600000 548.300000 543.200000 478.500000 426.400000 493.800000 507.400000 525.400000 556.100000 549.100000 575.300000 600.000000 609.100000 668.600000 609.000000 525.700000 593.400000 569.300000 506.300000 400.000000 394.900000 391.500000 393.300000 398.200000 410.300000 413.600000 477.500000 541.000000 604.300000 644.000000 515.600000 582.000000 633.900000 723.100000 801.300000 748.800000 688.300000 607.600000 509.400000 449.800000 389.300000 350.300000 325.000000 296.300000 250.000000 283.000000 306.100000 372.400000 444.200000 474.600000 563.100000 552.300000 484.200000 450.000000 450.100000 400.900000 334.400000 277.900000 253.800000 270.400000 242.300000 175.000000 175.000000 171.300000 155.300000 153.600000 162.300000 189.100000 206.500000 214.000000 228.800000 274.600000 322.700000 307.000000 300.000000 274.500000 250.800000 258.100000 207.300000 165.000000 136.800000 120.900000 112.400000 107.800000 103.000000 99.400000 97.000000 97.400000 98.600000 100.100000 101.300000 101.700000 102.500000 103.700000 143.200000 239.400000 225.400000 200.500000 138.800000 160.900000 151.600000 142.800000 150.000000 139.100000 100.700000 51.800000 50.000000 50.000000 50.000000 49.500000 70.100000 49.200000 45.800000 48.000000 94.300000 157.000000 116.700000 47.100000 49.800000 61.300000 46.600000 39.000000 35.300000 34.900000 34.500000 34.100000 33.800000 32.900000 32.200000 33.700000 36.300000 40.000000 34.600000 33.900000 34.100000 34.800000 34.300000 34.600000 35.000000 35.000000 66.500000 91.800000 118.400000 59.000000 36.700000
15.000000 15.000000 30.100000 46.000000 47.700000 41.200000 33.100000 16.900000 1.400000 0.000000 0.000000 0.000000 0.000000 0.000000 0.000000 0.000000 0.000000 4.700000 11.000000 18.800000 29.400000 38.800000 49.200000 63.900000 68.100000 74.800000 79.300000 101.600000 110.300000 117.700000 126.100000 145.500000 199.100000 216.800000 265.600000 283.900000 314.400000 307.500000 301.200000 224.600000 207.200000 205.000000 204.300000 195.200000 184.500000 175.000000 183.500000 181.800000 177.300000 169.600000 160.000000 185.800000 167.100000 128.600000 100.000000 103.300000 109.200000 124.500000 239.000000 306.100000 350.000000 387.300000 442.100000 498.000000 524.100000 500.400000 521.500000 476.500000 420.600000 408.600000 363.300000 275.900000 231.200000 224.900000 204.800000 189.400000 196.100000 206.100000 218.300000 232.200000 311.000000 375.000000 295.000000 258.500000 225.000000 250.000000 279.600000 309.100000 330.600000 378.300000 346.300000 319.700000 250.000000 225.000000 232.300000 276.600000 304.600000 324.500000 413.800000 467.700000 483.400000 512.400000 598.900000 628.500000 503.900000 425.200000 375.200000 350.000000 324.900000 299.900000 321.900000 296.600000 240.400000 251.800000 381.500000 430.500000 445.700000 442.100000 422.900000 444.100000 443.500000 451.000000 411.300000 394.000000 429.800000 500.700000 558.900000 623.600000 681.600000 657.400000 581.800000 568.400000 458.500000 375.300000 343.200000 476.200000 514.100000 508.600000 532.800000 575.800000 575.000000 527.900000 529.000000 505.100000 400.300000 439.000000 513.500000 527.200000 520.000000 544.700000 558.100000 624.800000 597.000000 607.800000 551.000000 496.700000 526.100000 504.400000 439.800000 379.700000 380.500000 381.300000 400.000000 400.000000 400.000000 430.400000 534.100000 558.400000 566.400000 481.000000 570.600000 625.400000 699.000000 793.300000 774.900000 697.700000 593.300000 520.700000 443.900000 474.800000 445.300000 338.100000 299.800000 243.700000 253.400000 333.300000 380.200000 436.500000 494.300000 525.100000 505.000000 440.500000 450.000000 446.800000 398.400000 377.500000 315.700000 336.700000 291.300000 237.200000 233.200000 180.600000 168.700000 150.700000 150.000000 150.000000 164.800000 170.800000 179.900000 218.200000 298.500000 271.100000 275.200000 245.600000 224.300000 220.700000 216.600000 200.000000 174.800000 149.000000 124.900000 120.400000 115.000000 103.700000 99.000000 95.100000 95.800000 97.600000 99.100000 99.500000 99.900000 100.000000 104.900000 146.500000 229.400000 221.900000 190.600000 145.100000 85.500000 107.000000 69.700000 124.600000 126.400000 100.600000 82.000000 76.500000 52.700000 47.400000 45.000000 48.200000 49.400000 45.500000 45.900000 84.200000 91.700000 69.300000 42.200000 37.400000 39.100000 37.500000 38.300000 35.400000 35.000000 35.000000 34.400000 33.800000 33.000000 32.400000 33.700000 34.900000 36.100000 33.900000 33.400000 34.100000 34.500000 33.000000 33.800000 41.300000 44.700000 36.300000 49.700000 105.200000 114.400000 50.500000
15.000000 15.000000 26.300000 33.300000 34.600000 31.600000 22.900000 9.400000 0.000000 0.000000 0.000000 0.000000 0.000000 0.000000 0.000000 0.000000 0.000000 0.300000 6.400000 13.000000 21.900000 31.500000 40.700000 57.600000 66.800000 69.000000 77.000000 106.900000 109.700000 110.000000 113.300000 130.900000 161.100000 184.700000 216.000000 253.000000 275.700000 300.800000 324.600000 240.300000 219.400000 197.800000 197.500000 199.000000 183.800000 171.500000 180.000000 177.600000 171.500000 163.600000 154.100000 170.300000 138.200000 101.800000 100.000000 106.600000 112.900000 152.800000 249.600000 303.500000 364.700000 399.000000 445.100000 476.500000 466.600000 451.100000 499.400000 478.000000 382.300000 371.800000 353.200000 279.100000 225.100000 224.200000 192.200000 180.600000 185.200000 189.800000 200.000000 246.100000 313.100000 336.100000 272.000000 220.700000 228.100000 229.400000 270.000000 307.400000 353.300000 406.600000 324.200000 303.100000 241.300000 225.000000 232.500000 262.700000 284.500000 326.100000 344.000000 377.500000 436.900000 586.300000 581.100000 619.400000 588.600000 523.600000 419.900000 462.200000 392.300000 361.100000 361.500000 287.000000 225.400000 249.400000 377.700000 414.400000 414.500000 401.700000 392.100000 388.400000 400.000000 423.000000 394.800000 315.300000 429.900000 463.000000 535.700000 633.500000 626.500000 630.000000 594.700000 526.300000 416.800000 335.900000 405.700000 516.700000 534.800000 574.800000 596.000000 609.200000 603.300000 550.700000 541.100000 502.000000 466.500000 392.900000 424.600000 453.200000 474.900000 495.800000 532.600000 569.300000 526.600000 597.600000 550.400000 515.700000 425.700000 438.900000 402.900000 375.000000 375.000000 386.600000 500.000000 500.000000 492.900000 481.900000 522.200000 533.800000 561.600000 474.800000 552.800000 597.600000 665.800000 738.100000 748.900000 694.400000 595.500000 544.500000 489.400000 456.400000 345.500000 309.700000 257.200000 226.800000 239.300000 342.200000 394.000000 400.000000 460.200000 500.600000 489.800000 425.600000 449.700000 498.600000 432.400000 434.000000 403.600000 375.400000 342.400000 277.700000 278.300000 254.200000 224.900000 160.000000 150.000000 150.000000 150.000000 150.000000 154.100000 228.300000 302.900000 255.900000 203.400000 223.300000 199.000000 198.300000 168.500000 189.500000 220.400000 175.900000 149.100000 149.900000 127.600000 117.100000 99.300000 95.000000 94.900000 95.600000 97.100000 97.500000 98.200000 99.700000 146.900000 240.200000 259.400000 249.800000 200.600000 177.500000 95.900000 70.100000 55.200000 59.800000 115.500000 125.000000 110.900000 99.200000 75.000000 47.700000 45.000000 45.000000 45.000000 44.200000 43.600000 48.000000 44.500000 40.100000 38.900000 36.500000 35.100000 35.300000 35.100000 35.100000 35.100000 35.200000 34.700000 34.500000 33.300000 33.000000 33.200000 33.400000 34.000000 33.100000 33.100000 34.000000 33.200000 31.000000 32.100000 50.000000 98.300000 58.100000 47.300000 88.900000 148.900000 36.800000
15.000000 15.000000 15.200000 20.400000 22.400000 21.600000 14.900000 4.600000 0.000000 0.000000 0.000000 0.000000 0.000000 0.000000 0.000000 0.000000 0.000000 0.000000 1.500000 8.100000 15.100000 23.100000 35.900000 51.200000 60.500000 66.000000 72.300000 94.300000 116.900000 110.000000 110.000000 121.100000 140.200000 183.000000 176.100000 215.100000 233.200000 251.600000 285.300000 244.400000 203.200000 193.800000 192.300000 198.800000 194.800000 170.500000 175.000000 171.400000 167.800000 159.000000 147.600000 158.100000 117.400000 100.000000 106.200000 111.000000 113.800000 192.300000 261.000000 303.300000 358.600000 400.300000 445.800000 408.300000 415.400000 400.800000 473.300000 451.400000 352.200000 334.800000 280.100000 242.200000 198.500000 191.200000 183.900000 175.300000 175.000000 180.000000 219.400000 258.500000 313.200000 288.500000 250.000000 202.200000 214.700000 224.900000 275.700000 296.100000 375.200000 398.100000 296.300000 287.600000 226.000000 225.000000 227.200000 263.700000 283.400000 297.500000 311.000000 370.500000 433.100000 606.900000 624.900000 644.600000 675.000000 595.900000 523.900000 528.500000 446.300000 449.900000 374.300000 287.300000 225.000000 240.000000 343.000000 333.700000 383.600000 344.600000 364.800000 340.400000 350.500000 380.200000 328.100000 327.100000 423.500000 477.900000 551.300000 617.800000 576.000000 599.700000 521.700000 501.300000 385.000000 280.900000 430.700000 515.800000 530.100000 531.600000 577.900000 625.600000 597.000000 541.600000 515.900000 475.000000 450.000000 380.600000 428.300000 469.800000 448.800000 475.000000 525.300000 506.200000 505.900000 600.000000 592.800000 526.300000 528.900000 442.700000 392.300000 375.000000 375.000000 377.000000 471.100000 480.100000 478.900000 403.600000 425.400000 517.700000 551.400000 462.100000 532.600000 550.900000 621.500000 643.700000 691.600000 681.100000 630.900000 576.300000 476.300000 374.000000 316.900000 278.800000 250.200000 227.000000 225.000000 302.600000 332.300000 372.500000 413.000000 457.100000 423.800000 406.200000 454.600000 499.800000 494.500000 507.000000 467.800000 391.900000 341.100000 325.000000 271.900000 225.000000 195.000000 191.000000 185.700000 150.000000 150.000000 150.000000 150.000000 177.800000 234.900000 190.500000 168.400000 172.200000 175.000000 168.800000 148.600000 166.700000 250.200000 195.100000 173.400000 174.000000 150.000000 121.900000 95.000000 93.800000 93.200000 94.100000 95.000000 95.700000 96.700000 98.400000 155.400000 250.200000 269.700000 218.000000 155.800000 100.200000 70.000000 60.100000 55.000000 55.000000 62.600000 101.300000 110.500000 78.900000 50.300000 47.100000 45.000000 45.000000 45.000000 43.800000 41.600000 40.000000 40.000000 38.700000 37.400000 36.400000 35.500000 35.700000 35.000000 34.700000 34.800000 34.700000 34.800000 34.900000 34.900000 32.700000 32.300000 33.400000 33.800000 32.300000 31.300000 32.500000 30.900000 30.000000 32.400000 45.900000 87.900000 90.100000 99.300000 93.400000 100.500000 34.400000
15.000000 15.000000 15.000000 15.000000 15.000000 13.400000 9.800000 2.400000 0.000000 0.000000 0.000000 0.000000 0.000000 0.000000 0.000000 0.000000 0.000000 0.000000 0.000000 3.100000 9.400000 16.900000 31.700000 48.900000 59.300000 63.800000 69.800000 90.100000 119.800000 110.000000 110.000000 119.000000 137.000000 151.300000 170.000000 198.500000 215.600000 208.100000 209.400000 195.900000 176.900000 179.800000 180.700000 175.000000 219.200000 206.600000 150.900000 166.600000 164.600000 152.900000 141.000000 132.700000 101.600000 101.600000 110.500000 112.800000 116.900000 209.400000 261.700000 302.800000 349.400000 361.900000 402.000000 343.700000 372.600000 354.000000 416.700000 380.100000 318.600000 277.000000 268.600000 217.100000 189.900000 174.600000 172.100000 169.700000 171.000000 173.900000 199.900000 261.500000 291.500000 235.700000 219.100000 200.000000 200.000000 224.900000 255.400000 301.900000 372.000000 370.100000 275.000000 269.500000 216.000000 207.600000 222.000000 247.800000 275.600000 294.000000 309.800000 328.100000 429.000000 534.000000 537.700000 613.200000 660.700000 691.200000 621.500000 571.100000 558.800000 481.700000 358.000000 289.300000 225.000000 221.300000 232.500000 276.500000 329.700000 258.200000 322.400000 300.900000 338.700000 260.900000 299.300000 381.200000 429.100000 460.900000 526.800000 600.000000 525.100000 575.000000 508.100000 475.300000 341.800000 291.600000 462.200000 512.900000 517.600000 555.300000 600.000000 616.800000 613.000000 559.200000 521.500000 475.100000 462.900000 410.400000 401.500000 413.600000 449.900000 497.100000 483.000000 469.300000 510.700000 576.700000 631.200000 550.400000 533.900000 467.800000 420.200000 369.600000 368.500000 371.000000 378.100000 427.600000 439.600000 384.300000 455.100000 475.500000 540.000000 458.800000 477.800000 517.100000 544.300000 548.900000 641.900000 612.700000 534.000000 508.600000 478.300000 366.400000 339.000000 323.900000 279.900000 232.100000 225.000000 258.000000 313.900000 357.000000 378.300000 389.500000 420.000000 380.000000 432.800000 456.900000 466.700000 500.000000 467.000000 409.000000 359.400000 337.300000 306.800000 273.600000 250.800000 221.600000 264.300000 180.100000 150.000000 150.000000 150.000000 145.200000 149.300000 150.300000 147.200000 144.200000 152.800000 147.600000 132.100000 146.500000 207.900000 200.000000 183.400000 151.800000 130.400000 106.800000 94.800000 92.300000 91.500000 92.600000 93.300000 94.300000 95.200000 97.200000 128.300000 242.000000 248.800000 240.600000 202.600000 139.400000 73.300000 88.600000 105.400000 68.700000 55.000000 55.000000 81.700000 75.100000 50.000000 48.800000 46.100000 45.300000 45.000000 43.900000 43.000000 42.000000 40.700000 39.500000 37.800000 35.600000 35.000000 35.200000 34.300000 34.300000 34.400000 34.300000 34.300000 35.200000 34.500000 31.800000 32.100000 33.400000 33.600000 32.100000 30.700000 30.000000 30.000000 30.000000 31.800000 34.500000 37.600000 58.100000 73.700000 98.200000 147.100000 67.800000
15.000000 15.000000 15.000000 15.000000 15.000000 10.900000 6.600000 2.300000 0.000000 0.000000 0.000000 0.000000 0.000000 0.000000 0.000000 0.000000 0.000000 0.000000 0.000000 0.000000 6.100000 12.400000 24.900000 46.800000 57.600000 62.500000 69.500000 83.500000 111.500000 114.500000 110.000000 122.600000 133.600000 143.800000 163.700000 164.700000 194.900000 185.700000 180.000000 183.300000 175.000000 172.600000 168.300000 165.400000 180.300000 217.100000 194.600000 150.000000 160.000000 149.100000 131.900000 112.000000 100.000000 108.500000 111.400000 113.500000 115.100000 257.200000 237.500000 279.300000 316.400000 327.700000 325.000000 299.500000 354.500000 323.500000 352.100000 324.900000 282.100000 248.400000 253.500000 206.100000 200.000000 168.600000 165.500000 165.200000 166.800000 167.700000 224.700000 255.800000 264.700000 208.300000 200.000000 187.300000 192.400000 212.400000 244.900000 279.300000 330.600000 351.900000 261.700000 250.000000 200.000000 197.900000 205.400000 243.700000 250.000000 265.700000 277.600000 296.000000 396.100000 471.500000 484.700000 518.000000 622.600000 660.700000 635.300000 577.700000 550.200000 527.500000 411.900000 346.700000 222.400000 208.700000 200.100000 210.200000 286.700000 225.200000 267.300000 302.000000 249.600000 274.300000 352.900000 375.900000 367.900000 442.600000 525.600000 561.100000 498.900000 549.900000 550.000000 509.000000 391.000000 250.000000 404.400000 454.900000 522.900000 548.700000 559.300000 610.100000 619.000000 573.400000 518.900000 480.500000 467.300000 418.100000 340.400000 424.800000 425.400000 475.000000 425.000000 453.600000 511.700000 578.900000 617.600000 527.800000 459.600000 391.300000 375.000000 365.200000 357.200000 361.800000 367.800000 375.000000 375.000000 377.600000 430.700000 479.500000 568.900000 530.900000 446.100000 427.400000 482.700000 499.200000 588.700000 625.000000 543.100000 445.100000 435.000000 401.900000 452.400000 413.800000 305.600000 237.800000 202.500000 246.500000 310.500000 329.900000 330.700000 346.900000 366.700000 381.100000 393.700000 423.000000 451.700000 482.700000 538.700000 451.700000 421.300000 407.000000 343.000000 324.400000 309.000000 288.300000 226.300000 197.200000 174.700000 150.000000 143.800000 129.300000 128.200000 129.000000 132.500000 130.100000 141.600000 144.000000 125.000000 140.100000 179.700000 195.000000 177.200000 165.500000 140.200000 130.800000 100.100000 91.400000 90.000000 90.900000 92.000000 92.600000 93.000000 94.300000 95.200000 123.400000 170.400000 208.900000 163.800000 113.700000 122.400000 159.800000 128.000000 105.100000 55.000000 55.000000 56.100000 75.000000 73.400000 65.800000 48.500000 47.500000 46.600000 45.200000 44.000000 42.800000 41.600000 40.400000 38.900000 36.300000 35.100000 35.000000 34.700000 34.600000 34.100000 34.200000 35.400000 36.400000 34.000000 31.600000 32.500000 33.300000 33.400000 32.600000 31.800000 31.000000 30.100000 30.500000 32.100000 34.100000 35.000000 42.000000 43.800000 79.700000 139.800000 115.500000
15.000000 15.000000 15.000000 15.000000 12.800000 8.500000 5.100000 1.700000 0.000000 0.000000 0.000000 0.000000 0.000000 0.000000 0.000000 0.000000 0.000000 0.000000 0.000000 0.000000 2.200000 8.500000 15.500000 39.800000 56.500000 61.100000 68.600000 80.500000 111.200000 121.200000 110.000000 122.300000 140.100000 175.000000 160.200000 155.900000 163.000000 175.800000 184.500000 175.100000 175.000000 171.500000 166.600000 165.000000 180.300000 180.800000 200.000000 152.700000 155.000000 146.200000 123.800000 100.000000 102.300000 110.200000 112.300000 114.200000 128.800000 250.000000 245.100000 252.700000 284.500000 275.700000 240.600000 250.200000 333.300000 286.100000 251.300000 253.100000 238.300000 223.300000 227.200000 225.000000 181.900000 160.100000 159.900000 161.300000 162.200000 167.800000 191.600000 239.700000 248.100000 195.000000 181.100000 175.100000 184.800000 208.300000 244.700000 271.200000 305.200000 268.100000 248.400000 212.400000 194.900000 193.700000 199.600000 235.600000 228.000000 236.400000 291.800000 369.400000 361.200000 403.100000 446.000000 456.700000 534.000000 625.000000 628.000000 594.400000 529.500000 572.800000 446.500000 353.200000 238.700000 214.200000 201.000000 200.000000 200.100000 209.500000 303.700000 246.600000 225.000000 295.200000 328.700000 307.900000 386.200000 452.300000 530.600000 529.200000 482.400000 531.200000 550.000000 513.100000 372.500000 250.600000 412.900000 454.200000 451.200000 511.500000 540.500000 565.900000 599.900000 529.300000 500.200000 475.100000 450.000000 440.200000 350.200000 355.000000 416.800000 440.100000 423.600000 493.300000 525.000000 538.200000 580.300000 553.400000 524.900000 476.600000 375.000000 367.100000 351.000000 350.900000 351.500000 375.000000 392.500000 445.500000 486.900000 532.000000 598.500000 569.800000 480.600000 352.000000 411.900000 470.500000 543.700000 620.600000 575.700000 550.500000 530.600000 456.000000 479.500000 400.700000 324.500000 252.900000 200.000000 242.400000 255.300000 282.000000 318.100000 347.700000 325.300000 352.600000 354.700000 384.100000 426.500000 444.300000 486.700000 488.800000 507.000000 473.900000 411.200000 360.100000 326.800000 286.400000 238.700000 203.800000 198.400000 211.100000 144.800000 132.600000 125.000000 125.000000 125.000000 124.000000 124.100000 123.800000 125.000000 151.600000 173.100000 175.300000 175.000000 175.000000 172.600000 150.000000 134.000000 91.500000 90.000000 90.000000 90.500000 90.800000 90.500000 91.200000 91.900000 93.600000 115.200000 215.900000 198.200000 133.500000 184.100000 152.300000 133.500000 59.200000 55.000000 55.000000 55.000000 55.000000 75.000000 57.200000 50.000000 49.000000 47.500000 46.100000 44.900000 43.600000 42.300000 40.900000 39.700000 37.900000 36.700000 35.400000 35.900000 36.000000 35.000000 34.800000 35.600000 36.000000 34.700000 32.400000 34.000000 36.200000 35.500000 33.900000 33.500000 33.100000 32.400000 31.200000 32.300000 34.200000 35.000000 40.300000 64.500000 83.400000 149.300000 92.700000
15.000000 15.000000 15.000000 15.000000 12.600000 9.200000 5.800000 2.400000 0.000000 0.000000 0.000000 0.000000 0.000000 0.000000 0.000000 0.000000 0.000000 0.000000 0.000000 0.000000 0.000000 5.600000 12.100000 29.900000 50.800000 60.700000 70.600000 86.900000 108.300000 120.000000 110.000000 115.600000 134.400000 175.000000 157.200000 155.000000 158.300000 165.600000 166.800000 181.200000 173.500000 165.000000 175.800000 165.000000 165.000000 176.200000 185.300000 178.800000 149.100000 144.200000 105.200000 100.000000 106.600000 111.300000 113.300000 115.100000 137.700000 254.900000 302.000000 267.500000 241.800000 205.600000 211.800000 276.900000 273.600000 316.100000 261.300000 209.300000 196.900000 199.900000 212.300000 199.400000 162.900000 155.000000 155.900000 157.600000 159.000000 161.200000 171.300000 243.200000 245.200000 178.600000 175.000000 175.000000 175.000000 200.000000 223.000000 251.500000 298.000000 249.700000 246.700000 200.800000 183.300000 192.100000 199.000000 222.000000 212.900000 242.400000 269.600000 275.700000 318.900000 399.000000 463.900000 539.400000 526.400000 574.500000 598.100000 596.700000 541.300000 536.500000 496.000000 362.600000 290.900000 227.000000 200.000000 200.000000 200.000000 200.200000 271.800000 200.500000 230.400000 247.700000 306.800000 369.800000 420.500000 483.400000 523.100000 496.300000 444.000000 478.600000 535.500000 499.400000 374.800000 225.200000 311.400000 438.700000 487.300000 521.400000 549.800000 576.200000 624.400000 563.400000 515.500000 514.200000 490.400000 461.200000 420.000000 320.400000 367.100000 351.500000 424.400000 482.600000 472.800000 473.700000 532.200000 577.800000 527.400000 469.000000 374.600000 354.900000 350.000000 350.000000 350.000000 392.100000 430.400000 490.700000 503.800000 536.700000 610.400000 558.800000 466.900000 384.700000 370.600000 415.600000 505.900000 603.100000 632.100000 588.200000 533.600000 514.600000 422.900000 389.500000 312.300000 253.100000 200.000000 200.600000 246.200000 273.600000 314.000000 318.900000 300.100000 288.900000 330.800000 366.300000 401.500000 415.200000 455.000000 511.600000 558.100000 504.800000 418.600000 380.600000 321.900000 277.200000 240.500000 225.000000 196.100000 175.000000 152.800000 144.100000 125.000000 125.000000 124.700000 122.100000 120.000000 118.500000 120.700000 144.600000 136.100000 139.800000 162.600000 175.000000 154.300000 137.100000 101.200000 90.200000 88.100000 87.800000 88.700000 88.700000 88.400000 88.700000 89.100000 91.600000 95.600000 180.800000 183.800000 168.500000 206.200000 154.200000 92.600000 58.200000 55.000000 55.000000 55.000000 55.000000 50.900000 50.800000 50.600000 49.500000 48.300000 46.900000 45.600000 44.200000 42.800000 41.400000 40.500000 39.600000 38.400000 37.900000 38.400000 38.200000 35.200000 34.500000 34.500000 35.100000 35.300000 33.200000 32.700000 38.500000 37.700000 34.200000 34.500000 35.600000 34.500000 32.800000 33.100000 34.900000 50.200000 47.700000 46.800000 90.300000 140.800000 74.100000
15.000000 15.000000 15.000000 15.000000 13.300000 10.000000 6.700000 3.400000 0.100000 0.000000 0.000000 0.000000 0.000000 0.000000 0.000000 0.000000 0.000000 0.000000 0.000000 0.000000 0.000000 2.900000 9.100000 16.500000 42.700000 60.500000 70.400000 88.900000 114.900000 116.700000 110.000000 120.700000 132.300000 151.400000 155.000000 151.700000 152.000000 162.000000 157.500000 156.800000 159.000000 160.000000 161.400000 162.500000 164.100000 189.600000 185.000000 191.400000 148.200000 129.200000 100.000000 100.300000 109.500000 112.500000 115.000000 117.300000 141.400000 248.000000 280.100000 254.100000 216.600000 194.000000 202.700000 236.800000 252.500000 303.300000 256.900000 193.100000 178.600000 175.600000 184.200000 164.200000 153.900000 151.100000 153.000000 154.800000 155.700000 157.700000 187.000000 217.300000 225.100000 175.200000 175.000000 175.000000 175.000000 200.100000 225.000000 270.900000 252.900000 225.400000 223.900000 180.800000 176.100000 181.200000 199.900000 200.000000 211.200000 244.100000 284.800000 344.800000 426.200000 494.200000 550.000000 552.000000 525.600000 526.600000 576.700000 563.700000 547.300000 500.400000 497.600000 459.000000 356.500000 295.700000 226.600000 200.000000 200.000000 199.500000 198.300000 200.000000 279.200000 322.900000 347.800000 344.700000 375.900000 426.100000 467.000000 474.900000 425.000000 474.000000 501.200000 466.600000 332.700000 225.200000 370.200000 384.400000 462.000000 506.300000 508.300000 546.700000 619.000000 628.500000 623.600000 574.400000 523.900000 461.100000 435.500000 390.100000 275.300000 393.900000 429.000000 450.000000 411.100000 450.400000 496.100000 550.000000 525.300000 453.500000 404.900000 351.500000 349.600000 344.700000 349.000000 407.100000 425.000000 439.200000 421.600000 506.700000 574.300000 546.000000 454.000000 367.100000 430.100000 515.300000 579.700000 679.200000 579.900000 511.500000 456.300000 441.700000 395.200000 324.200000 303.500000 272.800000 192.400000 187.600000 231.800000 247.100000 261.200000 258.900000 245.500000 269.800000 292.000000 326.000000 350.000000 408.900000 450.900000 508.100000 542.200000 560.100000 451.400000 453.100000 334.800000 301.600000 262.500000 224.500000 194.600000 201.500000 208.700000 176.500000 143.000000 131.400000 125.000000 122.200000 119.900000 116.300000 114.900000 115.100000 112.000000 114.700000 125.600000 144.300000 150.000000 110.700000 95.900000 90.300000 85.900000 85.800000 86.600000 86.500000 86.200000 86.200000 87.500000 89.700000 94.000000 181.700000 191.400000 177.500000 225.000000 182.400000 95.700000 58.800000 55.000000 55.000000 55.000000 55.000000 53.600000 53.100000 51.900000 50.100000 48.900000 47.500000 46.100000 44.800000 43.400000 42.500000 42.400000 41.900000 43.100000 52.300000 41.000000 40.900000 35.100000 33.700000 32.900000 33.600000 34.600000 33.500000 32.200000 36.600000 38.300000 34.600000 33.800000 43.300000 41.100000 34.500000 34.800000 49.100000 51.700000 89.700000 72.000000 128.100000 125.000000 67.200000
15.000000 15.000000 15.000000 15.000000 13.800000 10.400000 7.200000 4.100000 1.000000 0.000000 0.000000 0.000000 0.000000 0.000000 0.000000 0.000000 0.000000 0.000000 0.000000 0.000000 0.000000 1.000000 7.100000 13.000000 46.800000 58.200000 70.000000 86.000000 108.700000 108.500000 107.300000 115.800000 131.800000 152.400000 162.400000 150.200000 149.400000 150.400000 150.800000 149.500000 153.800000 160.000000 160.000000 160.300000 164.300000 204.800000 191.200000 191.200000 144.200000 106.300000 100.000000 103.800000 113.200000 115.000000 115.000000 118.000000 128.000000 230.900000 251.600000 217.500000 180.700000 174.200000 183.500000 229.700000 242.400000 255.300000 192.600000 168.800000 166.300000 161.500000 157.000000 156.100000 150.000000 150.000000 150.300000 151.700000 152.800000 161.100000 191.600000 196.800000 205.900000 171.100000 164.300000 169.400000 175.000000 185.600000 240.100000 275.000000 237.100000 220.700000 197.200000 175.000000 175.000000 175.000000 183.400000 198.400000 219.300000 279.200000 312.600000 392.600000 432.100000 499.500000 525.000000 550.000000 516.000000 513.100000 535.100000 527.100000 531.100000 473.300000 453.300000 485.900000 445.500000 373.200000 298.500000 233.800000 195.400000 183.200000 186.900000 200.000000 249.700000 297.000000 296.500000 301.100000 345.800000 361.800000 416.400000 450.000000 423.700000 426.900000 445.900000 464.200000 341.800000 200.200000 261.400000 415.500000 455.600000 458.400000 500.200000 523.500000 574.800000 683.500000 616.600000 583.800000 494.400000 473.300000 426.000000 411.700000 280.200000 351.800000 400.800000 423.200000 363.200000 433.000000 441.400000 510.500000 521.400000 454.400000 378.900000 350.000000 342.200000 335.600000 339.400000 356.300000 363.500000 359.200000 407.800000 473.200000 554.700000 516.300000 429.700000 334.000000 386.400000 450.500000 549.600000 575.800000 590.000000 506.900000 463.300000 411.300000 354.500000 305.100000 243.400000 213.200000 185.200000 175.000000 201.700000 223.600000 232.500000 223.000000 225.000000 241.600000 252.500000 292.500000 339.600000 394.000000 420.000000 488.300000 531.200000 566.200000 486.300000 446.600000 360.000000 314.300000 285.400000 236.500000 228.100000 257.200000 274.900000 195.900000 154.700000 149.200000 129.400000 150.500000 143.000000 120.200000 112.800000 109.300000 107.900000 107.000000 106.000000 105.900000 135.100000 107.600000 94.800000 91.300000 85.400000 85.000000 85.000000 85.000000 84.800000 83.800000 85.800000 87.100000 89.900000 159.500000 179.500000 126.100000 224.400000 123.500000 80.600000 66.400000 64.800000 57.800000 55.700000 55.700000 55.800000 54.600000 53.200000 51.400000 49.600000 48.500000 47.400000 46.100000 44.600000 43.800000 43.800000 42.800000 44.800000 58.300000 57.000000 39.700000 35.000000 33.300000 33.000000 33.300000 34.400000 32.400000 34.600000 42.800000 36.500000 33.500000 32.700000 53.400000 67.900000 62.900000 80.500000 104.500000 108.000000 136.700000 149.300000 146.700000 151.300000 104.000000
15.000000 15.000000 15.000000 15.000000 14.100000 11.000000 7.700000 4.500000 1.200000 0.000000 0.000000 0.000000 0.000000 0.000000 0.000000 0.000000 0.000000 0.000000 0.000000 0.000000 0.000000 0.000000 6.100000 12.400000 41.500000 58.200000 70.100000 86.800000 110.800000 116.900000 106.200000 125.800000 135.600000 163.700000 167.100000 148.600000 149.900000 161.100000 151.200000 151.500000 154.900000 162.000000 161.800000 163.500000 165.000000 168.700000 170.900000 182.000000 143.200000 116.800000 100.000000 107.800000 115.000000 115.300000 117.600000 119.100000 125.000000 213.400000 214.500000 181.300000 169.900000 165.800000 171.600000 199.300000 174.700000 170.100000 151.100000 156.900000 153.900000 151.900000 148.600000 145.500000 145.700000 146.500000 146.900000 149.000000 150.000000 178.400000 176.700000 154.200000 188.900000 153.000000 150.000000 155.300000 160.900000 186.100000 251.500000 261.300000 225.000000 200.800000 174.900000 171.800000 175.000000 175.000000 178.900000 204.500000 248.500000 274.600000 301.700000 341.500000 373.700000 426.000000 502.800000 527.800000 497.800000 500.000000 500.000000 496.600000 512.300000 455.100000 476.600000 477.200000 462.300000 367.200000 296.500000 245.600000 181.800000 175.000000 175.100000 219.200000 262.700000 232.000000 250.000000 282.100000 305.500000 335.800000 408.700000 458.500000 481.500000 421.100000 358.200000 405.600000 304.500000 200.000000 294.300000 435.400000 475.000000 500.000000 508.500000 544.800000 600.600000 633.300000 573.100000 528.400000 494.700000 446.100000 400.000000 398.000000 259.200000 338.700000 371.700000 321.200000 371.000000 419.700000 433.600000 485.700000 503.100000 484.100000 438.100000 378.400000 340.600000 327.800000 328.200000 332.300000 341.400000 395.700000 436.500000 495.300000 504.900000 499.100000 427.900000 301.400000 415.800000 483.800000 436.900000 529.700000 645.500000 643.700000 589.400000 514.900000 442.600000 380.700000 278.100000 263.500000 202.800000 175.000000 176.400000 195.000000 193.400000 200.000000 234.600000 243.500000 281.800000 286.200000 356.400000 380.800000 423.900000 477.100000 524.000000 605.700000 517.800000 458.500000 402.300000 346.900000 293.400000 262.300000 278.200000 269.100000 225.300000 192.300000 191.600000 173.300000 181.100000 264.200000 210.400000 159.500000 118.200000 108.500000 106.000000 105.000000 102.600000 100.400000 101.100000 98.600000 94.900000 91.800000 88.200000 85.000000 85.000000 85.000000 83.600000 83.200000 85.000000 84.100000 83.900000 85.500000 90.300000 99.800000 153.300000 166.800000 113.500000 123.800000 84.300000 59.500000 58.400000 58.100000 57.400000 56.200000 55.000000 53.500000 51.100000 49.400000 47.800000 46.500000 46.000000 44.900000 43.900000 42.800000 58.300000 76.000000 76.000000 37.700000 35.300000 33.900000 33.600000 37.500000 48.500000 42.200000 55.800000 74.900000 33.300000 30.000000 30.000000 36.400000 71.200000 88.700000 100.600000 114.700000 153.900000 112.300000 109.600000 93.400000 120.300000 87.500000
15.000000 15.000000 15.000000 15.000000 14.700000 11.300000 7.900000 4.500000 1.100000 0.000000 0.000000 0.000000 0.000000 0.000000 0.000000 0.000000 0.000000 0.000000 0.000000 0.000000 0.000000 0.200000 6.500000 12.800000 36.400000 56.800000 69.900000 90.800000 116.500000 113.300000 108.300000 125.800000 134.600000 148.200000 155.300000 149.500000 150.000000 164.600000 165.900000 160.000000 160.100000 170.000000 173.600000 173.500000 168.300000 172.500000 176.400000 178.200000 134.800000 107.400000 97.600000 109.900000 115.000000 115.900000 117.300000 118.800000 121.100000 204.800000 175.200000 170.400000 163.900000 158.200000 153.000000 148.300000 145.500000 144.800000 145.000000 146.100000 144.600000 143.600000 144.200000 143.200000 143.300000 144.400000 145.000000 147.000000 146.600000 161.300000 150.300000 140.000000 147.400000 145.500000 145.900000 147.300000 149.900000 171.500000 238.800000 229.800000 200.000000 175.400000 167.700000 161.100000 169.600000 175.000000 189.900000 249.000000 258.400000 275.000000 296.800000 327.900000 372.000000 394.700000 478.400000 500.000000 525.400000 454.600000 478.000000 455.300000 483.800000 436.700000 427.100000 430.700000 450.000000 369.100000 284.300000 250.600000 179.400000 175.000000 175.000000 200.000000 211.900000 222.600000 254.900000 277.500000 323.100000 398.400000 459.500000 475.000000 477.100000 449.900000 422.300000 299.800000 250.200000 207.400000 356.600000 440.200000 449.900000 475.000000 476.600000 522.800000 558.400000 614.300000 555.700000 473.600000 443.900000 429.000000 402.500000 349.300000 309.600000 269.100000 333.900000 334.900000 399.500000 378.200000 435.000000 447.300000 498.600000 480.600000 385.300000 350.000000 332.600000 325.000000 323.200000 325.000000 383.200000 399.800000 443.000000 419.000000 418.700000 443.100000 379.200000 306.300000 350.800000 386.200000 422.700000 539.100000 631.400000 635.700000 631.400000 543.400000 459.300000 384.500000 323.400000 327.700000 238.600000 175.000000 173.100000 175.000000 205.200000 227.900000 260.700000 294.000000 310.800000 337.700000 347.600000 416.200000 458.300000 522.600000 583.900000 625.000000 566.800000 535.100000 460.000000 397.200000 345.400000 318.800000 285.400000 253.100000 257.800000 217.000000 200.000000 204.700000 233.400000 271.300000 194.000000 155.200000 133.600000 109.600000 105.000000 103.200000 100.500000 100.000000 98.600000 97.300000 94.600000 92.000000 89.100000 85.300000 84.700000 83.700000 82.200000 83.800000 85.000000 83.300000 81.700000 81.100000 81.600000 87.200000 135.100000 214.700000 224.600000 184.400000 92.200000 67.900000 61.900000 60.400000 59.300000 57.500000 55.400000 54.100000 52.000000 50.000000 48.500000 46.600000 45.000000 45.000000 45.000000 45.000000 73.600000 48.500000 39.400000 37.000000 35.000000 35.000000 36.700000 58.900000 100.800000 99.400000 111.300000 121.800000 30.100000 30.000000 30.000000 30.000000 31.100000 32.700000 31.500000 44.200000 108.000000 100.800000 40.100000 33.500000 50.400000 100.900000
15.000000 15.000000 15.000000 15.000000 15.000000 12.100000 8.100000 4.100000 0.100000 0.000000 0.000000 0.000000 0.000000 0.000000 0.000000 0.000000 0.000000 0.000000 0.000000 0.000000 0.000000 1.300000 6.600000 11.800000 29.800000 52.800000 66.900000 87.200000 110.600000 111.500000 105.000000 119.100000 130.700000 135.000000 158.000000 150.700000 154.000000 165.000000 160.400000 160.300000 170.000000 175.000000 173.700000 174.800000 170.000000 174.800000 184.300000 184.500000 135.700000 105.800000 95.100000 110.700000 115.000000 116.300000 117.600000 119.000000 123.500000 166.500000 165.000000 160.700000 157.800000 152.700000 149.900000 147.200000 145.000000 143.100000 142.200000 141.900000 140.100000 140.000000 140.600000 140.200000 140.700000 141.600000 143.700000 145.000000 145.000000 143.200000 146.000000 135.200000 136.900000 142.400000 139.900000 141.000000 143.600000 163.400000 220.800000 218.100000 185.800000 169.100000 150.100000 150.800000 156.800000 178.900000 211.800000 226.700000 253.900000 275.000000 283.200000 306.200000 362.000000 402.000000 452.200000 488.500000 520.300000 499.200000 401.000000 475.100000 475.900000 449.400000 419.600000 423.100000 435.000000 378.400000 285.100000 207.700000 179.800000 175.000000 175.000000 175.000000 189.800000 206.100000 226.400000 272.800000 316.800000 418.900000 450.100000 454.000000 441.800000 412.600000 387.900000 269.300000 200.100000 202.700000 265.900000 336.200000 408.000000 422.300000 465.000000 477.800000 536.300000 620.200000 567.200000 480.300000 424.000000 385.600000 390.900000 367.100000 350.000000 255.100000 226.300000 332.800000 345.800000 370.500000 400.000000 433.600000 493.300000 487.200000 405.800000 410.800000 343.400000 321.600000 315.100000 318.100000 323.800000 358.200000 397.800000 346.600000 344.000000 389.000000 392.900000 291.000000 311.200000 343.700000 445.900000 554.900000 602.300000 599.300000 596.500000 548.700000 474.900000 409.100000 364.400000 294.200000 235.100000 181.700000 153.200000 170.700000 201.100000 200.000000 245.500000 288.100000 330.500000 403.000000 448.500000 517.700000 543.800000 599.600000 626.400000 625.000000 594.300000 606.000000 493.400000 458.900000 404.800000 364.700000 363.200000 316.500000 284.500000 242.500000 226.000000 265.800000 275.000000 240.300000 190.800000 143.000000 124.000000 110.800000 106.700000 100.300000 99.300000 97.300000 96.200000 95.000000 93.300000 90.700000 88.000000 83.900000 81.700000 80.400000 80.300000 80.100000 81.100000 80.400000 79.100000 77.800000 77.900000 79.100000 105.900000 145.100000 225.300000 194.300000 151.800000 94.600000 64.300000 61.800000 60.000000 57.400000 55.000000 54.200000 52.200000 50.400000 48.800000 46.900000 45.100000 45.000000 45.000000 46.600000 44.600000 40.000000 38.300000 35.000000 35.000000 35.000000 67.500000 103.900000 119.300000 140.100000 134.700000 112.900000 30.000000 30.000000 30.000000 32.200000 30.000000 30.000000 31.600000 30.000000 87.200000 87.800000 47.900000 25.000000 25.000000 39.300000
15.000000 15.000000 15.000000 15.000000 15.000000 11.600000 7.400000 3.200000 0.000000 0.000000 0.000000 0.000000 0.000000 0.000000 0.000000 0.000000 0.000000 0.000000 0.000000 0.000000 0.000000 1.300000 6.000000 10.900000 20.500000 47.900000 60.900000 85.200000 110.600000 113.600000 105.000000 104.600000 115.600000 133.600000 173.500000 155.000000 145.700000 169.500000 162.400000 159.000000 169.700000 172.900000 177.600000 174.900000 170.000000 171.000000 177.000000 175.000000 135.900000 108.600000 95.100000 107.300000 115.000000 115.000000 116.300000 118.300000 120.000000 132.700000 139.600000 148.000000 150.100000 150.000000 149.400000 146.300000 144.200000 142.000000 139.900000 137.700000 138.400000 137.600000 137.600000 138.000000 140.000000 140.000000 144.700000 143.400000 144.500000 139.900000 138.900000 135.000000 135.000000 135.000000 134.000000 134.900000 135.600000 147.400000 203.300000 177.500000 165.100000 150.700000 150.000000 150.000000 153.700000 175.300000 191.400000 237.700000 250.000000 250.200000 257.600000 300.200000 378.300000 414.100000 457.100000 465.300000 495.300000 470.800000 405.700000 464.600000 459.300000 458.200000 386.200000 424.800000 416.100000 358.600000 286.000000 232.400000 171.900000 167.400000 173.100000 176.300000 201.100000 241.400000 265.100000 274.100000 324.200000 408.300000 448.000000 414.600000 455.800000 427.700000 385.900000 295.500000 178.400000 220.000000 378.700000 425.000000 425.000000 446.400000 447.800000 489.400000 531.500000 634.200000 607.300000 525.700000 448.800000 396.200000 371.000000 335.300000 296.000000 273.800000 208.900000 292.600000 312.800000 347.800000 377.500000 389.000000 441.600000 475.000000 448.100000 401.800000 346.100000 314.500000 307.100000 311.100000 312.500000 325.300000 339.300000 324.200000 319.600000 359.600000 400.800000 338.600000 263.300000 356.200000 433.600000 504.500000 542.300000 575.000000 550.000000 585.100000 523.900000 449.200000 367.300000 272.400000 239.000000 214.200000 150.000000 150.000000 150.000000 201.900000 229.000000 256.600000 300.700000 355.900000 422.400000 443.600000 489.000000 543.700000 630.300000 678.400000 640.800000 619.300000 550.100000 505.300000 475.100000 435.700000 392.800000 346.800000 295.900000 277.200000 268.100000 299.800000 299.100000 244.100000 199.700000 164.300000 152.700000 138.200000 114.500000 103.300000 99.000000 95.500000 93.800000 92.500000 90.800000 88.900000 86.200000 82.700000 80.000000 79.800000 78.600000 78.000000 75.600000 75.000000 75.300000 74.900000 75.300000 75.700000 75.000000 89.500000 101.600000 93.300000 81.100000 74.200000 65.000000 62.200000 59.400000 57.000000 55.600000 55.000000 53.100000 50.900000 49.100000 48.200000 47.300000 45.900000 45.800000 49.600000 40.000000 40.000000 39.700000 38.900000 41.600000 48.400000 76.900000 131.100000 132.300000 143.800000 102.000000 97.600000 30.000000 30.000000 34.800000 60.300000 51.700000 30.100000 102.500000 34.600000 100.100000 110.300000 28.100000 25.000000 25.000000 25.000000
18.000000 16.700000 15.400000 15.000000 15.000000 10.700000 6.400000 2.200000 0.000000 0.000000 0.000000 0.000000 0.000000 0.000000 0.000000 0.000000 0.000000 0.000000 0.000000 0.000000 0.000000 0.000000 3.500000 8.800000 14.200000 38.900000 57.700000 76.800000 97.900000 110.100000 103.500000 102.100000 114.900000 136.900000 161.900000 150.000000 143.200000 150.600000 163.400000 155.000000 165.500000 168.800000 173.200000 174.200000 169.600000 170.000000 170.000000 177.400000 137.200000 119.900000 97.600000 106.800000 115.000000 115.000000 115.000000 115.800000 118.300000 122.300000 132.500000 140.200000 143.900000 157.900000 155.900000 146.600000 143.100000 140.600000 137.600000 135.200000 136.100000 136.000000 135.000000 136.800000 139.100000 151.800000 134.300000 132.700000 144.700000 137.000000 135.200000 134.400000 140.700000 130.100000 130.000000 130.400000 131.600000 133.200000 187.300000 163.100000 144.000000 142.600000 150.000000 150.000000 150.000000 157.900000 199.600000 228.200000 250.000000 241.200000 267.300000 319.200000 375.800000 400.100000 400.000000 425.100000 450.500000 425.500000 374.100000 449.900000 437.700000 451.400000 350.100000 400.100000 386.700000 350.000000 268.000000 193.000000 163.000000 150.800000 160.000000 179.300000 199.900000 223.700000 257.100000 287.200000 305.100000 375.500000 426.000000 363.400000 413.200000 381.300000 373.500000 284.700000 175.000000 235.100000 355.200000 362.000000 375.200000 385.400000 429.200000 454.100000 521.300000 612.700000 581.300000 479.900000 411.100000 361.700000 328.300000 341.400000 321.400000 324.300000 221.200000 218.500000 309.100000 327.400000 349.900000 369.600000 427.900000 468.600000 400.900000 331.700000 325.000000 310.000000 300.000000 301.500000 301.300000 299.200000 295.900000 300.000000 305.900000 352.400000 425.000000 353.000000 241.500000 323.700000 350.000000 411.300000 511.500000 517.700000 511.700000 575.000000 521.900000 436.100000 368.900000 302.800000 235.200000 198.000000 150.000000 150.000000 149.900000 185.400000 225.000000 246.000000 308.000000 396.700000 373.700000 361.200000 454.600000 531.200000 577.900000 570.200000 533.300000 561.200000 575.000000 569.800000 492.000000 433.600000 375.000000 347.100000 318.500000 326.600000 311.100000 324.300000 300.200000 264.800000 228.500000 219.100000 177.900000 149.400000 120.100000 104.000000 98.900000 94.900000 92.200000 90.500000 89.700000 87.100000 85.200000 82.400000 80.000000 78.600000 77.000000 75.800000 75.000000 75.000000 74.000000 72.700000 72.500000 72.800000 72.300000 71.300000 69.700000 69.100000 68.000000 65.500000 63.600000 61.600000 59.500000 58.200000 56.800000 55.200000 53.500000 51.400000 50.000000 50.000000 52.000000 50.000000 68.100000 68.900000 40.200000 40.000000 39.900000 69.400000 40.000000 40.000000 98.300000 151.100000 111.300000 106.900000 70.300000 41.800000 30.000000 30.000000 30.000000 46.400000 97.600000 34.900000 110.300000 91.000000 83.600000 126.900000 28.600000 71.000000 27.000000 25.000000
21.500000 20.200000 18.900000 16.000000 15.000000 11.600000 6.800000 2.000000 0.000000 0.000000 0.000000 0.000000 0.000000 0.000000 0.000000 0.000000 0.000000 0.000000 0.000000 0.000000 0.000000 0.000000 0.300000 5.800000 12.000000 31.000000 56.000000 67.400000 86.800000 109.400000 102.700000 100.000000 114.500000 127.400000 156.600000 159.500000 140.000000 140.000000 156.900000 158.900000 155.000000 163.400000 165.000000 167.400000 164.200000 163.200000 178.700000 178.300000 139.600000 118.800000 100.300000 97.100000 115.000000 115.000000 115.000000 115.000000 117.000000 119.300000 126.200000 128.600000 151.900000 175.300000 154.200000 142.500000 141.000000 140.000000 135.700000 134.900000 135.000000 134.300000 133.100000 135.000000 137.200000 148.900000 130.000000 131.000000 146.300000 134.900000 132.900000 131.300000 132.700000 131.700000 126.700000 127.200000 126.700000 127.800000 165.500000 156.000000 135.000000 134.300000 143.100000 150.000000 150.000000 160.500000 181.400000 211.600000 205.500000 201.000000 242.600000 290.700000 393.800000 396.100000 411.900000 437.200000 449.800000 448.700000 366.100000 403.300000 423.800000 422.400000 345.400000 383.500000 376.400000 335.900000 257.900000 177.700000 150.000000 150.000000 150.000000 173.100000 213.100000 231.700000 258.000000 280.500000 316.700000 405.500000 438.900000 343.000000 323.400000 305.300000 351.300000 234.700000 175.000000 210.000000 305.400000 352.100000 407.700000 431.900000 449.900000 496.000000 556.200000 610.600000 607.100000 548.300000 447.200000 431.800000 418.500000 397.800000 344.800000 332.100000 277.900000 213.300000 295.200000 317.900000 330.400000 355.200000 381.900000 444.700000 406.000000 361.900000 316.200000 300.000000 300.000000 296.800000 293.600000 291.400000 285.800000 294.100000 323.900000 382.000000 462.500000 387.400000 276.400000 279.000000 335.100000 424.700000 469.100000 415.600000 465.100000 561.200000 528.600000 441.600000 376.500000 347.000000 286.100000 238.900000 176.600000 142.500000 135.600000 150.500000 182.600000 212.400000 279.400000 315.800000 274.100000 344.300000 399.400000 511.600000 507.000000 475.900000 459.300000 469.400000 547.300000 542.600000 523.900000 487.300000 449.900000 426.700000 389.200000 372.900000 427.600000 361.200000 325.000000 301.100000 250.700000 234.600000 198.400000 173.900000 143.800000 150.300000 108.000000 94.600000 91.000000 88.800000 88.300000 86.500000 83.600000 81.700000 80.000000 77.500000 75.700000 75.000000 75.000000 75.000000 73.400000 71.400000 70.000000 70.000000 70.000000 69.500000 69.000000 68.200000 66.200000 65.000000 64.600000 62.300000 60.000000 59.500000 57.600000 55.300000 53.400000 51.100000 50.000000 51.600000 73.000000 67.000000 134.200000 116.700000 82.200000 40.000000 55.000000 69.500000 92.500000 95.400000 105.500000 107.300000 79.900000 42.200000 30.000000 30.000000 30.000000 30.000000 57.400000 49.800000 117.200000 101.500000 57.300000 149.500000 104.400000 126.800000 79.800000 94.900000 29.700000 25.000000
25.100000 23.800000 21.900000 17.500000 15.000000 12.500000 7.700000 2.600000 0.000000 0.000000 0.000000 0.000000 0.000000 0.000000 0.000000 0.000000 0.000000 0.600000 1.300000 1.400000 0.800000 0.300000 1.200000 6.600000 12.200000 25.800000 48.800000 63.600000 75.400000 97.200000 101.800000 100.000000 111.000000 131.600000 173.100000 156.500000 141.600000 139.200000 139.600000 145.800000 160.000000 154.800000 165.800000 178.500000 158.800000 155.000000 160.500000 175.200000 140.700000 119.300000 100.500000 90.600000 113.800000 115.000000 115.000000 115.000000 115.500000 117.700000 120.000000 123.100000 124.000000 124.600000 124.000000 124.300000 120.300000 120.000000 120.000000 121.600000 123.300000 131.400000 130.900000 131.700000 131.700000 137.200000 130.000000 130.000000 133.200000 131.200000 130.000000 128.300000 129.900000 129.700000 121.300000 121.800000 120.200000 123.200000 161.300000 170.100000 124.000000 126.700000 135.200000 143.900000 151.500000 174.900000 177.200000 189.300000 171.800000 185.300000 247.100000 346.700000 396.400000 381.400000 397.000000 400.000000 425.100000 416.000000 317.800000 375.000000 394.100000 399.500000 380.300000 358.800000 380.700000 349.800000 272.700000 199.000000 150.000000 150.000000 150.000000 190.000000 178.700000 225.000000 223.200000 275.700000 351.100000 425.000000 404.200000 348.100000 254.700000 238.000000 245.100000 165.200000 164.300000 212.300000 279.000000 339.400000 353.500000 395.200000 411.400000 451.200000 494.700000 563.600000 579.700000 593.900000 548.300000 494.300000 452.600000 399.100000 336.200000 300.000000 254.600000 175.000000 254.000000 245.700000 307.800000 376.100000 444.600000 453.400000 365.900000 325.000000 302.000000 300.000000 300.000000 288.200000 286.500000 283.400000 279.200000 283.600000 323.400000 383.400000 476.800000 419.400000 318.700000 213.700000 303.900000 400.700000 411.000000 331.100000 476.800000 548.200000 533.300000 438.600000 400.100000 319.800000 295.300000 230.200000 213.500000 142.000000 125.000000 143.300000 165.000000 191.500000 262.600000 232.500000 232.300000 334.400000 408.400000 421.700000 400.100000 425.200000 441.800000 425.300000 469.200000 497.100000 493.100000 475.300000 475.000000 450.000000 482.000000 486.200000 473.100000 390.500000 343.300000 302.800000 253.600000 236.700000 215.100000 200.000000 172.100000 120.500000 98.300000 91.200000 89.800000 87.800000 85.200000 84.500000 82.600000 80.400000 79.100000 76.700000 75.000000 74.700000 75.000000 74.800000 73.200000 71.400000 69.700000 69.000000 68.400000 66.600000 67.500000 67.400000 65.800000 65.000000 64.700000 62.500000 60.600000 59.600000 57.500000 55.200000 54.900000 53.300000 53.000000 65.100000 110.900000 100.900000 155.600000 145.800000 79.000000 45.000000 104.300000 127.600000 157.000000 140.000000 132.500000 109.900000 42.600000 30.000000 30.000000 30.500000 30.000000 30.000000 54.300000 125.300000 146.900000 160.300000 119.300000 150.000000 108.000000 167.900000 132.000000 114.800000 87.000000 88.200000
28.600000 27.300000 23.400000 20.300000 19.000000 15.000000 10.500000 4.500000 0.000000 0.000000 0.000000 0.000000 0.000000 0.000000 0.000000 0.500000 2.300000 3.200000 3.900000 3.600000 2.900000 2.800000 5.800000 9.100000 15.000000 30.500000 47.400000 64.000000 71.200000 85.800000 99.500000 100.000000 116.800000 133.900000 159.000000 162.300000 140.100000 135.200000 135.200000 136.500000 149.900000 152.900000 163.200000 159.500000 154.900000 154.000000 154.100000 152.100000 142.400000 119.100000 100.300000 92.700000 105.400000 115.000000 115.000000 115.000000 115.000000 115.900000 117.800000 120.100000 121.900000 122.800000 122.100000 120.500000 120.000000 119.900000 118.300000 118.900000 119.400000 123.500000 130.000000 130.000000 130.000000 129.500000 128.100000 128.100000 128.400000 126.100000 126.200000 125.600000 131.300000 140.000000 118.100000 113.500000 113.300000 117.200000 154.200000 136.800000 119.000000 121.800000 128.500000 140.300000 146.400000 146.300000 152.600000 151.100000 150.000000 199.400000 270.200000 342.500000 388.000000 394.100000 334.200000 409.000000 407.600000 422.000000 315.000000 341.500000 348.300000 399.900000 399.500000 309.300000 370.200000 295.300000 237.300000 166.400000 145.500000 142.600000 141.200000 149.300000 165.900000 185.300000 190.600000 241.500000 335.000000 408.800000 412.100000 357.500000 301.100000 211.800000 160.100000 141.100000 226.800000 327.100000 374.500000 399.700000 400.100000 425.000000 447.100000 487.900000 534.400000 551.600000 563.800000 573.700000 547.900000 470.800000 422.800000 359.800000 349.300000 313.200000 256.000000 175.000000 215.200000 292.700000 334.100000 388.900000 435.700000 462.200000 417.400000 364.800000 300.000000 300.000000 291.400000 279.000000 278.800000 276.100000 275.000000 275.000000 278.300000 326.200000 467.100000 433.800000 314.400000 212.300000 294.500000 311.500000 295.900000 363.900000 500.600000 522.800000 514.400000 434.000000 365.900000 305.600000 240.700000 192.800000 150.100000 136.100000 125.000000 130.500000 149.000000 212.100000 216.000000 184.500000 250.600000 301.000000 364.100000 375.400000 354.700000 422.000000 399.600000 350.700000 424.100000 447.000000 431.400000 461.700000 475.000000 439.000000 430.500000 429.900000 452.000000 370.700000 340.800000 351.500000 293.800000 235.300000 190.300000 165.800000 143.300000 109.500000 94.600000 89.900000 87.000000 85.700000 85.000000 82.900000 81.400000 80.000000 78.100000 75.700000 73.800000 73.100000 73.600000 74.200000 72.000000 69.900000 68.100000 66.800000 65.800000 65.300000 66.100000 66.000000 65.300000 64.900000 63.900000 62.700000 61.100000 59.300000 57.100000 55.100000 54.100000 55.000000 60.100000 94.900000 146.700000 183.200000 179.600000 179.700000 88.900000 68.100000 112.800000 167.600000 194.300000 156.400000 155.500000 117.200000 34.400000 31.100000 68.700000 100.000000 30.600000 30.000000 38.500000 111.900000 146.800000 167.900000 133.900000 106.500000 121.400000 170.900000 143.700000 55.400000 30.000000 29.400000
32.200000 29.300000 26.500000 26.200000 26.300000 20.300000 12.100000 7.000000 2.500000 0.000000 0.000000 0.000000 0.000000 0.000000 1.700000 3.100000 4.600000 5.700000 6.400000 5.800000 5.400000 5.500000 7.400000 11.500000 20.200000 33.900000 47.600000 64.100000 69.200000 81.100000 92.300000 97.600000 100.000000 124.800000 160.600000 145.000000 159.800000 140.200000 135.000000 135.000000 143.200000 152.600000 157.200000 159.700000 154.000000 150.700000 151.300000 150.000000 152.700000 132.200000 112.300000 96.300000 94.000000 105.600000 115.000000 114.600000 114.000000 114.200000 115.000000 117.400000 120.500000 121.000000 120.300000 120.000000 120.000000 119.200000 117.000000 116.500000 116.900000 116.700000 123.500000 130.000000 130.000000 129.000000 126.900000 125.900000 125.300000 124.400000 122.200000 124.100000 141.600000 148.000000 115.200000 108.400000 107.600000 110.200000 123.700000 119.200000 115.000000 118.500000 122.300000 123.200000 124.800000 140.300000 123.800000 134.600000 148.400000 193.700000 233.300000 331.300000 391.800000 375.100000 351.700000 355.100000 392.100000 370.600000 339.000000 304.200000 367.800000 352.200000 377.800000 303.400000 340.900000 312.200000 205.300000 157.500000 141.800000 129.800000 130.800000 130.100000 138.600000 150.200000 173.500000 240.500000 316.600000 367.700000 319.800000 336.000000 316.500000 238.700000 145.100000 140.800000 212.300000 325.200000 346.600000 358.600000 363.900000 385.400000 402.100000 432.300000 504.300000 542.600000 549.400000 586.600000 535.700000 461.800000 405.200000 375.900000 369.300000 302.700000 251.000000 175.700000 182.100000 208.100000 280.000000 328.500000 404.500000 441.100000 384.900000 327.900000 300.000000 319.700000 276.900000 275.000000 275.000000 272.000000 269.300000 275.000000 275.000000 334.700000 440.300000 413.700000 292.700000 200.000000 229.000000 254.800000 354.600000 455.300000 456.300000 501.400000 516.200000 436.700000 344.100000 282.700000 235.600000 195.600000 202.800000 163.100000 125.000000 125.000000 125.200000 175.500000 187.600000 177.400000 204.400000 266.200000 321.300000 305.300000 354.300000 383.600000 378.600000 304.000000 340.300000 362.200000 373.600000 413.000000 453.400000 467.600000 449.800000 381.900000 418.000000 366.100000 300.900000 271.400000 259.400000 207.800000 176.900000 144.800000 122.400000 105.700000 99.300000 90.100000 87.600000 85.000000 85.000000 82.800000 80.400000 79.300000 77.000000 74.800000 73.200000 71.500000 71.400000 71.000000 70.300000 69.000000 66.500000 65.600000 65.200000 65.000000 64.600000 63.900000 63.500000 62.700000 61.900000 61.300000 58.700000 58.800000 56.800000 54.600000 53.700000 54.800000 85.400000 120.800000 195.000000 225.300000 216.700000 221.300000 135.200000 106.100000 123.100000 208.500000 177.500000 161.100000 137.600000 56.400000 35.000000 45.300000 102.300000 127.000000 30.300000 30.000000 30.600000 37.400000 113.400000 175.000000 136.100000 90.300000 39.400000 132.500000 173.900000 145.200000 31.900000 27.300000
