ncols         68
nrows         41
xllcorner     1715911.000000
yllcorner     5147278.000000
cellsize      250.000000
NODATA_value  -9999.0
-9999.0 -9999.0 -9999.0 -9999.0 -9999.0 -9999.0 -9999.0 -9999.0 -9999.0 -9999.0 -9999.0 -9999.0 -9999.0 -9999.0 -9999.0 -9999.0 -9999.0 -9999.0 -9999.0 -9999.0 -9999.0 -9999.0 -9999.0 -9999.0 -9999.0 -9999.0 -9999.0 -9999.0 -9999.0 -9999.0 -9999.0 -9999.0 -9999.0 -9999.0 -9999.0 -9999.0 -9999.0 -9999.0 -9999.0 -9999.0 -9999.0 2233.576172 2104.983887 2012.325562 1933.929565 1895.045166 1895.944214 1923.338135 1985.806519 2051.248535 2149.344727 2140.302734 2146.433838 2150.000000 2225.000000 2288.163818 2441.784668 2694.248779 2604.122314 2587.248779 2550.000000 2583.388916 2546.943359 2500.537842 2505.185791 2459.786621 2496.882813 2436.594482
-9999.0 -9999.0 -9999.0 -9999.0 -9999.0 -9999.0 -9999.0 -9999.0 -9999.0 -9999.0 -9999.0 -9999.0 -9999.0 -9999.0 -9999.0 -9999.0 -9999.0 -9999.0 -9999.0 -9999.0 -9999.0 -9999.0 -9999.0 -9999.0 -9999.0 -9999.0 -9999.0 -9999.0 -9999.0 -9999.0 2093.669922 2109.942139 2123.262451 -9999.0 -9999.0 -9999.0 -9999.0 -9999.0 -9999.0 -9999.0 -9999.0 2217.015137 2130.987305 2057.896729 2007.156250 1961.398315 1956.401978 1950.000000 1988.987305 2052.225586 2168.134033 2270.506836 2186.675049 2149.039307 2200.323486 2223.965576 2311.318115 2616.724365 2750.000000 2746.594482 2647.992432 2544.574951 2425.476563 2500.000000 2507.667969 2453.424561 2546.287109 2462.576904
-9999.0 -9999.0 -9999.0 -9999.0 -9999.0 -9999.0 -9999.0 -9999.0 -9999.0 -9999.0 -9999.0 -9999.0 -9999.0 -9999.0 -9999.0 -9999.0 -9999.0 -9999.0 -9999.0 -9999.0 -9999.0 -9999.0 -9999.0 -9999.0 -9999.0 -9999.0 -9999.0 1954.322632 2006.338623 2017.487183 2040.825684 2048.083252 2082.256592 2128.940186 2143.604004 -9999.0 -9999.0 -9999.0 2150.000000 -9999.0 2297.058350 2239.359131 2185.787109 2149.737793 2087.037109 2005.909790 2009.791382 2067.367920 2078.310547 2103.177979 2152.186768 2215.186523 2125.000000 2128.796875 2169.815918 2195.270020 2251.841064 2370.312988 2498.483887 2656.848389 2610.301270 2460.547852 2339.368896 2366.455078 2478.066895 2299.429932 2441.999756 2432.976807
-9999.0 -9999.0 -9999.0 -9999.0 -9999.0 -9999.0 -9999.0 -9999.0 -9999.0 -9999.0 -9999.0 -9999.0 -9999.0 -9999.0 -9999.0 -9999.0 -9999.0 -9999.0 -9999.0 -9999.0 -9999.0 -9999.0 -9999.0 -9999.0 -9999.0 -9999.0 1952.635010 1923.184570 1937.840332 1962.317139 2013.229370 2014.996582 2021.971313 2068.761475 2059.617676 2056.968506 2100.000000 2106.527100 2132.531982 2175.000000 2241.580078 2317.527344 2243.297607 2221.075928 2160.142822 2122.049316 2137.671875 2133.773682 2176.895020 2225.324219 2235.035156 2225.000000 2082.042236 2117.115967 2253.358887 2205.706543 2200.000000 2294.008057 2296.973877 2274.198730 2278.358887 2254.220459 2223.724854 2212.431396 2284.688965 2142.134521 2106.426758 2085.036865
-9999.0 -9999.0 -9999.0 -9999.0 -9999.0 -9999.0 -9999.0 -9999.0 -9999.0 -9999.0 -9999.0 -9999.0 -9999.0 -9999.0 -9999.0 -9999.0 -9999.0 -9999.0 -9999.0 -9999.0 -9999.0 -9999.0 -9999.0 -9999.0 -9999.0 2008.085938 1939.147705 1887.211060 1879.734009 1918.499756 1952.590820 1967.510498 1986.521729 2025.000000 1998.919556 1999.010620 2035.866821 2054.661865 2101.790527 2175.000000 2225.000000 2303.916748 2352.073242 2374.676514 2240.576172 2236.339111 2245.926758 2250.644775 2273.280273 2300.000000 2190.935547 2029.888550 1986.857666 2008.397583 2129.186279 2339.112061 2261.631836 2158.343506 2158.596191 2157.296387 2168.184814 2150.999512 2109.516113 2089.125000 2079.421631 2042.404663 2017.746216 1989.157227
-9999.0 -9999.0 -9999.0 -9999.0 -9999.0 -9999.0 -9999.0 -9999.0 -9999.0 -9999.0 -9999.0 -9999.0 -9999.0 -9999.0 -9999.0 -9999.0 -9999.0 -9999.0 -9999.0 -9999.0 -9999.0 -9999.0 -9999.0 -9999.0 1984.932495 1985.029907 1935.570679 1869.722046 1849.393311 1880.398804 1900.000000 1936.091675 1922.951294 1953.069946 1950.457153 1975.000000 1996.152710 2034.130127 2078.901855 2148.496338 2223.301270 2275.000000 2375.308350 2485.178711 2381.479248 2340.954834 2338.919922 2341.640869 2304.546631 2217.888672 2053.474609 1975.422607 1936.967773 1991.840210 2080.003418 2195.103516 2442.614502 2194.214355 2075.000000 2098.255371 2112.830078 2099.539307 2059.641846 2042.535889 2024.115356 1992.285767 1968.574097 1924.864746
-9999.0 -9999.0 -9999.0 -9999.0 -9999.0 -9999.0 -9999.0 -9999.0 -9999.0 -9999.0 -9999.0 -9999.0 -9999.0 -9999.0 -9999.0 -9999.0 -9999.0 -9999.0 -9999.0 1868.953003 1926.015015 1970.842041 2005.293091 1987.732544 1938.709473 1910.274658 1915.837280 1834.218384 1825.000000 1836.234375 1860.433472 1867.853149 1860.406006 1900.000000 1900.231689 1931.320801 1952.447266 2014.134277 2057.101318 2123.628906 2173.227295 2194.889648 2243.196289 2300.486084 2526.911133 2504.802979 2254.020508 2185.907471 2100.000000 2049.701416 2000.481812 1944.557739 1900.000000 1927.899048 2010.650391 2160.200439 2281.949707 2221.344727 2010.141235 2075.000000 2100.000000 2100.000000 2098.285645 2055.988281 2006.567749 1975.000000 1968.208496 1942.000732
-9999.0 -9999.0 -9999.0 -9999.0 -9999.0 -9999.0 -9999.0 -9999.0 -9999.0 -9999.0 -9999.0 -9999.0 -9999.0 -9999.0 -9999.0 -9999.0 1950.000000 1889.803223 1850.000000 1907.997559 1981.525879 2051.051270 2050.000000 1985.709229 1941.533691 1901.270630 1850.000000 1821.356567 1800.000000 1794.057129 1808.177246 1805.201782 1816.116821 1840.685547 1850.000000 1889.197876 1947.723511 2015.985596 2050.000000 2097.273438 2101.735107 2128.894043 2186.890137 2232.056885 2375.000000 2329.892090 2241.117676 2153.631592 2089.172607 2031.668945 1963.901978 1909.523315 1875.734863 1884.157715 1941.959106 2029.549316 2104.599365 2045.126953 1952.675903 2074.796631 2150.000000 2126.701416 2161.969238 2112.551758 2056.392578 1995.340576 2034.845215 2079.690674
-9999.0 -9999.0 -9999.0 -9999.0 -9999.0 -9999.0 -9999.0 -9999.0 -9999.0 -9999.0 -9999.0 -9999.0 2371.926514 2223.445313 2116.865967 2065.671631 1994.193237 1906.637207 1872.678467 1952.187988 2003.657837 2060.230469 2079.327637 2029.716919 1968.257690 1923.218262 1875.137573 1814.007935 1775.000000 1761.495361 1767.520752 1779.712769 1792.728516 1818.666992 1850.000000 1892.360962 1952.439697 2001.951538 1994.157104 2021.848511 2070.176270 2089.451660 2131.341797 2200.000000 2279.834717 2228.976807 2200.198242 2139.429199 2091.224365 2046.272949 1987.846069 1930.320679 1875.000000 1850.000000 1882.460693 1962.101318 1993.879395 1937.934570 1913.143188 2182.917725 2195.187744 2157.669434 2183.113037 2174.977783 2140.855469 2090.225830 2131.717041 2181.413818
-9999.0 -9999.0 -9999.0 -9999.0 -9999.0 -9999.0 -9999.0 -9999.0 -9999.0 -9999.0 2526.976074 2460.764160 2270.998535 2175.770264 2157.465332 2077.445313 2016.224609 1917.399902 1880.677002 1958.677246 2023.632812 2034.475830 2070.539795 2068.522217 2007.414185 1938.172974 1882.703979 1864.575562 1815.390869 1762.515991 1751.266357 1762.456177 1773.012817 1809.695190 1853.261719 1914.670776 1941.978638 1961.975708 1931.075073 1956.215454 1999.646973 2038.021606 2110.714111 2200.000000 2250.000000 2189.674072 2181.011719 2150.000000 2100.000000 2060.543701 2025.000000 1967.249756 1887.546509 1825.000000 1841.103760 1898.731812 1919.775024 1888.975220 1889.192139 1981.847778 2270.868408 2215.447998 2228.290283 2233.606689 2198.610352 2164.685791 2217.228027 2276.293457
-9999.0 -9999.0 -9999.0 -9999.0 -9999.0 -9999.0 -9999.0 -9999.0 2785.518555 2671.995117 2532.782471 2397.984863 2203.786865 2041.711304 2041.903931 2084.247070 2055.732910 1988.065674 1885.389526 1890.039062 1988.421875 2027.330200 2093.601318 2092.486572 2042.592285 1975.342773 1943.381104 1925.000000 1850.000000 1809.644653 1747.878784 1744.796143 1750.000000 1827.077026 1843.068481 1875.000000 1900.000000 1865.519653 1900.000000 1931.555176 1990.145386 2056.141357 2105.082031 2157.896484 2207.574463 2142.865967 2116.159180 2078.728760 2061.242920 1973.351196 1986.044067 1975.574341 1915.174072 1831.545410 1800.000000 1823.877075 1848.560791 1843.947266 1890.443237 1984.386963 2115.165527 2279.792480 2274.203857 2276.284668 2279.253662 2226.682129 2275.000000 2326.521729
-9999.0 -9999.0 -9999.0 -9999.0 -9999.0 -9999.0 -9999.0 2830.873779 2679.170898 2584.479248 2469.175781 2318.943115 2083.451172 1970.456177 1972.897949 1982.046387 2000.000000 1996.604614 1950.135498 1863.494507 1938.153076 2065.924805 2085.000000 2093.508057 2081.702637 2057.530518 2035.339844 1949.182739 1873.194214 1797.225342 1737.765137 1710.038452 1753.002808 1849.956665 1801.261597 1875.000000 1800.000000 1868.197266 1936.972046 1967.826050 2007.071045 2047.767334 2107.097168 2171.548828 2173.459717 2116.991699 2072.118896 2028.912964 1975.999146 1925.608643 1913.205566 1885.591797 1862.425415 1848.491577 1777.258301 1762.138794 1777.728882 1850.000000 1886.500854 1972.983276 2064.246338 2109.197510 2305.945068 2321.193115 2425.467773 2304.727295 2298.853516 2375.000000
-9999.0 -9999.0 -9999.0 -9999.0 -9999.0 3044.241943 2892.410156 2789.343994 2586.565918 2542.532715 2450.401367 2098.113037 1936.820801 1861.776611 1874.644653 1875.000000 1946.805664 1974.120972 2019.703979 1850.055786 1870.156006 2042.763062 2073.511230 2019.231689 2041.973389 2079.092773 2005.582275 2002.080444 1935.299316 1851.670044 1773.426392 1694.309692 1643.837036 1701.328003 1739.580444 1725.122803 1760.987061 1898.234863 1997.451660 2047.579956 2075.302490 2094.891602 2132.580078 2250.000000 2204.961426 2125.781006 2042.756836 2003.082886 1957.072510 1944.290161 1934.158081 1919.904053 1890.676270 1835.380371 1737.260498 1738.134521 1790.331299 1850.000000 1892.462158 1957.682983 2013.486328 2056.612549 2125.321289 2184.423828 2391.842773 2459.678467 2342.443115 2400.000000
-9999.0 -9999.0 -9999.0 -9999.0 3006.765381 3035.502441 2928.893555 2857.450684 2637.400391 2449.241943 2285.017090 1997.005615 1899.372070 1869.453613 1825.000000 1810.180542 1815.596558 1870.545532 1843.686890 1785.056763 1863.456909 1924.259766 1951.936401 1871.725952 1961.351685 2022.698242 2006.311646 1908.569824 1971.466309 1939.560181 1881.030029 1753.266357 1612.913574 1608.768311 1667.298706 1806.358643 1859.867432 1891.645264 1940.588867 2088.482666 2156.352295 2166.219727 2193.155762 2282.436768 2247.934814 2171.009766 2075.000000 2027.965454 1990.085205 1989.025513 2010.132568 2015.747803 1904.679932 1747.082397 1694.680420 1727.942139 1830.686768 1887.587402 1900.000000 1956.162231 1983.745483 2026.471191 2081.044189 2131.506592 2203.671143 2397.427002 2394.856934 2446.672363
-9999.0 -9999.0 -9999.0 -9999.0 2849.822510 2875.179688 2867.620605 2664.868408 2590.099609 2410.042236 2183.082031 2026.005615 1939.912720 1954.660278 1857.495605 1813.527710 1752.612183 1730.742920 1731.336914 1722.166382 1808.033203 1858.545898 1772.353882 1775.000000 1829.888550 1870.495972 1799.812256 1760.048218 1727.012451 1773.004761 1754.700195 1747.839600 1690.765747 1548.505859 1688.692993 1839.361816 1925.000000 1938.356201 1971.548218 2030.011353 2132.068115 2224.537109 2312.331299 2392.320313 2231.846924 2157.210449 2114.931152 2072.495117 2070.071777 2095.454102 2093.514648 1966.485596 1819.452393 1714.640625 1650.000000 1752.904663 1875.000000 1926.313232 1950.000000 1962.604248 1978.851318 2021.903564 2077.489990 2125.447510 2175.320801 2300.000000 2319.346436 2273.985352
-9999.0 -9999.0 -9999.0 -9999.0 2747.338135 2670.335449 2647.679443 2576.636719 2449.879395 2263.828369 2130.559082 2050.000000 2020.043457 2005.088501 1894.489624 1885.223755 1773.583374 1688.315796 1675.000000 1675.000000 1694.149902 1699.564941 1664.713745 1647.633667 1652.951782 1661.005737 1636.756348 1629.974976 1620.480347 1610.875610 1611.524780 1605.691895 1603.855225 1500.000000 1621.471558 1685.101685 1736.443970 1793.366455 1853.791138 1966.746094 2070.312012 2122.655273 2230.628418 2298.941650 2273.412354 2266.650635 2209.184570 2200.000000 2172.526367 2201.266602 2120.430908 1928.868652 1816.174683 1676.086670 1648.145264 1751.742188 1821.462891 1951.594482 2003.853638 1992.166260 1999.299805 2050.000000 2107.948975 2125.000000 2170.840332 2220.636963 2227.726562 2225.000000
-9999.0 2903.439453 2861.771729 2774.176025 2575.000000 2550.406982 2538.643799 2461.086182 2344.328369 2148.998535 2090.651123 2001.841553 1950.356812 1958.289673 1915.153442 1899.999390 1802.007080 1687.288696 1625.000000 1596.575928 1575.000000 1575.000000 1550.000000 1550.000000 1550.000000 1502.514893 1500.000000 1477.059814 1529.391846 1467.066040 1449.168213 1464.172241 1445.852905 1425.000000 1575.298950 1603.573364 1611.614014 1678.287842 1745.055298 1826.658081 1892.271484 1943.557861 2140.666992 2217.101563 2328.417725 2450.000000 2282.370850 2114.813965 2002.656128 2038.460815 2044.514282 1953.234131 1794.425415 1634.129639 1626.257446 1730.528809 1882.959961 2000.000000 1975.789795 2009.791016 2043.240723 2076.539063 2062.588135 2086.177490 2143.178955 2178.528320 2175.154785 2189.038330
-9999.0 2685.169678 2640.121094 2608.388672 2526.287354 2427.255127 2354.033447 2317.166260 2268.422119 2114.304688 2034.148926 1995.029663 1897.531738 1875.000000 1827.183228 1799.394409 1758.144653 1668.445435 1610.440796 1600.000000 1615.924927 1637.345947 1630.185425 1607.651733 1575.000000 1549.221924 1553.257446 1529.436279 1450.000000 1399.922485 1375.000000 1350.000000 1350.000000 1398.834961 1430.780396 1452.580200 1478.731812 1549.151245 1628.387451 1672.640747 1837.929077 1911.363892 1945.927979 2097.452148 2228.683105 2282.304443 2279.359375 2104.372559 1938.179199 1889.922485 1995.001709 1967.465576 1795.479370 1632.729492 1586.654175 1726.822144 1889.661499 1920.319336 1931.692871 1955.521118 1985.025391 2006.992310 2038.552734 2071.848389 2125.000000 2167.258301 2149.553955 2146.309570
-9999.0 2547.055176 2476.625732 2435.653809 2356.659180 2285.937012 2197.724365 2157.381836 2141.937988 2031.509277 1981.093506 1940.093750 1900.000000 1806.754639 1769.267090 1714.364746 1675.000000 1650.000000 1628.984253 1654.320923 1702.852295 1728.085693 1722.127930 1697.482544 1682.704834 1670.488037 1688.944458 1621.263062 1531.238159 1527.606079 1494.222778 1469.588623 1419.441772 1345.218506 1315.727539 1315.727539 1333.527710 1430.473755 1488.756714 1639.434204 1741.014404 1797.856934 1838.955322 1992.507812 2089.356934 2120.721924 2170.483887 2172.090088 1997.013306 1804.644653 1810.726196 1799.367065 1792.048828 1581.990356 1560.170410 1701.647339 1751.796875 1717.935791 1797.982910 1839.213379 1905.196655 1986.445312 2061.326416 2101.644043 2137.359375 2123.077393 2088.584961 2100.479736
-9999.0 2360.448975 2334.834229 2316.093750 2275.042480 2249.700195 2181.031006 2104.522461 2025.362427 1952.869751 1977.598877 1886.756104 1823.645264 1760.596680 1725.000000 1740.493652 1712.203979 1726.319336 1742.031982 1725.819824 1822.942139 1818.543579 1800.358765 1858.576782 1853.477905 1772.439575 1764.905151 1766.615845 1688.910156 1686.067627 1691.917480 1648.802856 1591.294434 1484.048706 1403.760498 1359.684082 1300.000000 1328.479614 1433.710449 1531.972656 1613.318848 1645.743896 1776.595825 1844.726685 1919.940552 1915.841431 2098.410156 2084.936768 2018.725830 1896.089233 1753.183228 1627.320801 1631.831909 1541.121704 1532.512329 1559.577271 1637.698730 1743.225952 1872.482910 1845.108521 1878.847290 1980.938965 2047.235229 2090.648438 2131.589844 2099.475098 2047.531860 2028.307983
-9999.0 2338.824463 2283.466553 2236.309082 2211.826172 2174.528809 2165.388184 2125.000000 2043.684204 1969.497681 1925.000000 1823.685913 1800.000000 1798.949951 1830.187622 1827.719727 1849.879272 1899.484375 1866.497314 1763.791260 1900.773437 1966.091187 1995.019409 2019.664795 2013.071289 1803.641357 1790.716064 1919.569092 1903.978638 1889.740234 1886.741455 1822.853638 1756.011353 1651.324829 1559.638916 1450.000000 1334.338745 1275.000000 1299.024658 1415.589355 1464.284668 1572.651978 1692.343994 1768.889893 1790.585327 1790.804321 1945.261719 2031.278687 1891.212769 1910.981201 1831.055298 1711.582031 1575.269653 1472.416504 1477.321411 1575.000000 1735.699707 1859.621216 2030.519775 1919.590454 1877.353149 1988.218506 2039.672974 2077.770508 2114.878418 2123.945801 2044.673706 1983.039307
-9999.0 2252.989014 2195.660889 2171.741699 2145.858398 2131.466553 2103.342285 2053.198730 1981.268066 1888.620728 1850.000000 1815.544434 1853.895142 1902.656128 1898.989502 1873.052002 1979.693848 2066.071045 1897.013550 1892.641357 1955.294312 2143.910156 2125.134277 2075.706299 1886.820557 1829.924805 1870.492310 2006.992310 2001.247192 1975.000000 1901.334473 1843.083252 1731.058594 1632.147949 1508.404663 1428.058472 1363.391846 1372.084717 1268.140503 1270.506104 1396.035156 1466.849121 1555.388306 1682.298584 1617.966553 1728.226074 1848.145264 1905.608154 1835.685791 1754.843018 1739.360596 1705.539307 1500.789307 1430.244141 1466.185425 1561.327271 1732.598389 1907.897217 2090.228516 1997.043701 1964.761841 2066.977295 2082.778809 2110.517334 2128.809326 2092.253174 2096.786621 1975.987915
2243.275391 2198.099609 2150.000000 2100.000000 2060.868164 2042.590088 2016.831421 1968.653198 1921.175781 1909.334839 1900.000000 1917.146362 1937.655273 1990.403931 1957.473145 1950.733276 2102.732422 2075.544922 1950.870239 1995.562012 2001.674072 2151.744873 2195.849854 2041.575806 1945.122559 1973.958252 2004.593872 2011.786133 1951.732178 1898.635254 1846.336548 1722.354370 1623.310303 1540.341797 1469.249512 1433.540405 1483.357300 1511.046875 1391.508057 1268.140503 1227.271851 1361.463501 1435.224243 1498.091553 1518.610840 1648.719727 1759.902954 1850.000000 1776.764404 1719.022095 1626.693481 1590.268433 1432.737061 1375.000000 1473.735718 1563.896362 1727.940796 1918.031494 2081.687500 2043.706909 2060.125732 2136.406738 2165.695068 2190.299072 2170.491943 2000.000000 2046.684814 1869.895874
2331.035156 2210.977051 2168.124512 2132.255859 2081.460938 2052.419189 2009.439087 1987.556030 1972.268433 1971.644653 1974.892944 2006.894653 2010.654419 2063.286133 2016.185059 2003.741455 2098.709717 2098.947754 2012.356567 1986.790161 2035.473877 2130.533203 2199.795166 2073.741699 2078.002441 2104.870850 2070.487549 1990.438965 1933.967407 1882.823853 1825.000000 1694.596191 1584.765259 1525.000000 1530.123657 1564.180786 1669.562744 1644.122681 1574.272949 1432.117554 1283.998413 1227.271851 1325.000000 1425.000000 1464.371094 1533.480957 1648.443970 1742.631714 1762.525513 1633.167480 1527.014404 1439.218872 1368.562866 1384.181763 1533.442017 1574.370850 1737.482666 1892.424072 2100.080078 2130.917236 2143.732666 2257.733887 2241.989258 2250.000000 2053.589600 1924.989258 1882.843628 1773.656860
2353.372559 2235.266846 2201.229248 2169.641113 2132.004883 2115.118896 2100.355713 2081.478027 2113.324707 2096.119385 2074.388916 2074.052734 2083.473877 2158.222900 2135.370117 2111.520264 2220.859375 2191.485352 2184.418945 2154.566650 2150.000000 2167.065918 2164.475830 2125.000000 2102.487549 2172.917480 2142.426270 2000.000000 1915.352417 1856.451294 1775.000000 1633.288086 1582.651733 1603.403931 1631.962036 1737.798340 1847.393311 1801.365845 1677.195557 1534.703491 1388.015015 1248.690674 1227.271851 1326.173218 1347.283081 1417.096069 1514.163574 1600.684692 1627.995605 1578.179810 1415.351807 1281.214722 1312.838867 1426.534058 1583.226440 1663.299194 1755.401978 1933.049561 2094.595947 2160.290039 2223.000732 2332.766602 2350.000000 2172.861572 2054.655273 1931.701172 1857.061768 1700.000000
-9999.0 2291.570557 2256.486816 2230.156250 2223.753174 2208.870605 2219.234131 2216.079590 2282.961670 2287.281006 2175.000000 2160.981689 2191.260986 2269.501953 2236.675293 2250.000000 2279.548584 2226.897705 2257.536621 2255.894531 2220.736816 2183.174072 2200.000000 2161.797852 2145.111816 2225.000000 2141.021240 2099.014648 1986.098145 1913.162476 1737.667725 1706.651978 1687.066162 1758.374390 1817.197754 1925.000000 1836.281006 1731.104004 1653.045410 1627.375610 1462.236938 1314.441040 1227.662231 1223.227661 1264.094727 1320.253418 1394.082764 1472.651489 1457.690186 1413.975464 1323.276367 1250.000000 1403.876343 1542.252563 1627.682861 1710.025146 1810.923462 1937.906250 2068.888916 2092.682861 2206.356689 2221.579102 2215.091064 2085.991211 1917.335815 1865.356934 1765.954590 1623.193604
-9999.0 2356.545410 2355.870850 2355.422363 2364.913086 2416.313965 2379.166992 2391.734863 2447.560303 2494.710693 2288.819580 2244.639404 2360.226807 2455.318848 2343.023438 2319.015381 2297.069580 2308.589355 2313.550293 2322.629883 2352.477051 2257.272217 2225.000000 2216.659912 2216.032715 2194.031494 2142.373047 2081.312988 1936.426147 1817.730713 1779.954468 1784.896851 1840.239746 1954.623413 1975.972046 1856.557373 1726.055298 1625.000000 1587.305542 1497.357788 1398.548096 1275.000000 1375.055542 1314.434570 1223.227661 1227.473389 1324.945312 1366.734253 1346.003784 1276.064941 1223.690918 1291.953857 1411.155518 1581.469360 1667.637085 1753.971680 1879.999878 1976.320679 1945.536987 1966.210815 2089.895264 2133.958008 2168.576904 1976.741821 1826.546509 1727.088257 1700.000000 1613.099365
-9999.0 -9999.0 -9999.0 -9999.0 -9999.0 -9999.0 -9999.0 -9999.0 -9999.0 -9999.0 -9999.0 -9999.0 -9999.0 -9999.0 2600.000000 2490.387207 2415.442871 2387.653564 2428.992920 2488.367188 2542.575195 2359.016357 2276.644531 2259.763916 2225.000000 2155.260010 2116.113770 2076.695068 1956.517212 1914.582275 1861.552368 1965.950439 2027.454590 2134.094238 2005.544434 1835.035278 1760.771606 1755.998169 1771.315552 1658.337036 1409.527222 1383.703613 1484.992065 1458.694946 1335.948364 1223.227661 1212.601685 1230.555664 1217.401123 1197.386353 1296.337891 1361.596680 1526.966431 1672.770996 1770.954468 1834.630371 1900.880005 1975.790894 1899.239258 1864.310059 1927.668457 2079.587891 2096.526611 1962.532715 1816.386963 1703.820068 1591.683228 1530.021606
-9999.0 -9999.0 -9999.0 -9999.0 -9999.0 -9999.0 -9999.0 -9999.0 -9999.0 -9999.0 -9999.0 -9999.0 -9999.0 -9999.0 -9999.0 -9999.0 -9999.0 -9999.0 -9999.0 -9999.0 2697.552490 2484.583740 2316.403076 2245.597168 2215.865723 2164.296387 2119.656494 2075.368408 2025.000000 1985.145630 1975.000000 2069.526855 2219.217041 2054.181152 1908.468262 1843.659424 1899.411255 1873.556274 1699.453857 1558.596313 1397.405762 1451.519653 1544.524780 1550.000000 1499.392700 1329.199097 1225.000000 1167.891113 1167.891113 1167.991943 1289.748657 1404.724976 1569.653564 1697.395996 1768.697754 1807.529175 1813.785889 1782.259155 1734.015991 1787.132568 1974.792725 2062.144043 1999.003052 1854.399902 1744.572998 1657.050537 1580.101807 1469.085938
-9999.0 -9999.0 -9999.0 -9999.0 -9999.0 -9999.0 -9999.0 -9999.0 -9999.0 -9999.0 -9999.0 -9999.0 -9999.0 -9999.0 -9999.0 -9999.0 -9999.0 -9999.0 -9999.0 -9999.0 -9999.0 2570.393066 2358.254883 2284.415039 2238.511230 2190.414307 2151.506104 2099.924072 2103.959717 2080.923340 2062.373779 2229.280029 2158.703613 2055.891846 2002.662598 1999.731323 1951.764404 1752.785034 1652.389404 1500.138550 1422.135498 1515.714355 1630.534668 1673.297852 1518.229614 1364.611816 1288.113403 1241.920532 1189.814941 1167.891113 1238.289551 1383.211914 1566.064209 1597.461426 1699.991821 1714.730591 1721.685547 1635.736328 1620.406128 1796.769897 1958.206055 1997.167725 1961.704468 1913.324707 1827.268921 1696.053467 1579.956177 1446.425781
-9999.0 -9999.0 -9999.0 -9999.0 -9999.0 -9999.0 -9999.0 -9999.0 -9999.0 -9999.0 -9999.0 -9999.0 -9999.0 -9999.0 -9999.0 -9999.0 -9999.0 -9999.0 -9999.0 -9999.0 -9999.0 -9999.0 2502.684326 2393.737549 2301.834961 2234.925781 2174.552734 2174.472900 2270.891602 2253.593750 2256.640381 2208.826904 2158.226562 2101.850830 2114.814941 2151.787598 1986.007324 1776.740845 1593.608398 1475.000000 1516.157959 1639.766724 1823.190674 1749.943115 1630.819946 1534.969849 1428.200806 1296.885864 1223.343384 1167.891113 1191.343506 1338.311890 1415.460938 1461.499268 1619.462402 1598.218384 1606.770386 1500.000000 1634.568237 1767.849243 1915.365723 1878.564575 1802.026001 1854.242432 1819.517090 1694.021851 1562.579590 1462.857910
-9999.0 -9999.0 -9999.0 -9999.0 -9999.0 -9999.0 -9999.0 -9999.0 -9999.0 -9999.0 -9999.0 -9999.0 -9999.0 -9999.0 -9999.0 -9999.0 -9999.0 -9999.0 -9999.0 -9999.0 -9999.0 -9999.0 -9999.0 -9999.0 2476.306885 2418.050049 2303.095459 2357.378662 2446.642334 2469.320313 2395.491455 2344.938477 2257.059570 2283.170166 2166.488281 2064.986572 1950.190063 1760.155762 1560.785278 1592.676758 1747.947266 1831.427979 1898.096069 1850.742432 1823.522705 1749.888428 1652.994263 1531.587524 1295.110596 1167.891113 1167.891113 1229.843628 1275.290649 1354.994141 1517.003906 1532.060547 1466.439819 1469.812622 1585.871582 1702.405273 1817.995117 1793.151733 1668.457642 1723.729004 1807.498901 1703.141357 1550.715088 1453.622314
-9999.0 -9999.0 -9999.0 -9999.0 -9999.0 -9999.0 -9999.0 -9999.0 -9999.0 -9999.0 -9999.0 -9999.0 -9999.0 -9999.0 -9999.0 -9999.0 -9999.0 -9999.0 -9999.0 -9999.0 -9999.0 -9999.0 -9999.0 -9999.0 2441.862793 2355.168213 2281.929199 2283.203369 2365.556641 2400.212646 2322.165283 2369.304688 2286.084717 2233.430664 2100.784668 1944.767090 1838.924683 1705.886230 1656.332520 1754.193359 1864.852661 1895.202759 1857.014038 1790.021362 1794.338013 1731.128296 1606.895752 1514.615723 1339.025879 1252.234497 1204.004272 1167.891113 1138.538452 1290.527954 1370.437134 1422.205566 1375.000000 1538.108398 1673.141479 1804.889526 1766.558105 1705.104126 1581.209229 1596.571655 1736.551514 1680.935059 1527.461304 1426.304443
-9999.0 -9999.0 -9999.0 -9999.0 -9999.0 -9999.0 -9999.0 -9999.0 -9999.0 -9999.0 -9999.0 -9999.0 -9999.0 -9999.0 -9999.0 -9999.0 -9999.0 -9999.0 -9999.0 -9999.0 -9999.0 -9999.0 -9999.0 -9999.0 2277.367676 2293.427979 2227.822998 2177.262207 2275.174316 2313.451172 2270.043701 2223.850586 2173.404297 2088.173584 1952.639038 1910.704834 1768.895630 1675.000000 1700.000000 1834.041504 1879.573120 1911.831299 1841.647705 1745.386597 1688.651978 1603.207275 1524.612427 1468.688599 1422.330444 1422.297119 1364.520142 1288.824829 1138.538452 1234.500122 1250.091553 1299.360229 1430.503662 1567.061035 1788.653564 1827.542480 1740.450928 1589.819702 1508.331543 1529.179077 1662.120483 1701.887817 1544.878052 1401.720581
-9999.0 -9999.0 -9999.0 -9999.0 -9999.0 -9999.0 -9999.0 -9999.0 -9999.0 -9999.0 -9999.0 -9999.0 -9999.0 -9999.0 -9999.0 -9999.0 -9999.0 -9999.0 -9999.0 -9999.0 -9999.0 -9999.0 -9999.0 -9999.0 2146.397217 2125.509277 2107.766602 2065.764404 2098.392090 2179.438721 2233.173584 2134.234131 2049.056152 1958.530762 1881.618774 1849.739990 1801.640869 1751.483643 1796.044922 1944.636353 1973.482178 1974.147949 1824.659424 1702.710083 1643.567749 1590.915527 1545.497437 1510.163940 1481.880371 1480.898804 1433.251221 1337.400757 1163.692749 1120.235718 1257.134277 1327.416626 1424.687256 1535.638184 1597.363892 1802.039185 1767.399902 1628.790405 1501.141357 1461.179810 1527.156738 1573.405273 1423.272461 1345.963013
-9999.0 -9999.0 -9999.0 -9999.0 -9999.0 -9999.0 -9999.0 -9999.0 -9999.0 -9999.0 -9999.0 -9999.0 -9999.0 -9999.0 -9999.0 -9999.0 -9999.0 -9999.0 -9999.0 -9999.0 -9999.0 -9999.0 -9999.0 -9999.0 2106.437256 2040.683350 1960.170044 1939.609985 1938.355957 2062.266357 2200.000000 2104.197754 2000.460205 1992.420532 1943.412354 1977.033569 2001.589600 1866.959961 1889.148315 2050.120605 2139.687744 2038.366211 1868.762817 1846.264648 1749.573364 1641.026245 1637.481567 1604.277588 1557.711426 1471.114258 1430.601196 1336.734741 1195.238281 1120.235718 1176.902710 1260.596802 1285.955322 1388.498413 1530.715332 1702.976685 1757.814087 1568.666870 1466.708008 1375.000000 1400.000000 1426.811035 1308.781616 1245.628052
-9999.0 -9999.0 -9999.0 -9999.0 -9999.0 -9999.0 -9999.0 -9999.0 -9999.0 -9999.0 -9999.0 -9999.0 -9999.0 -9999.0 -9999.0 -9999.0 -9999.0 -9999.0 -9999.0 -9999.0 -9999.0 -9999.0 -9999.0 -9999.0 2050.000000 1975.000000 1950.000000 1900.148071 1839.769165 1926.332153 2029.525879 2140.454102 2050.000000 2095.613037 2045.535400 2000.109375 2056.445801 2011.152344 2029.877075 2164.077148 2200.563232 2121.017090 2040.247681 1935.209839 1823.337402 1723.170898 1674.934448 1656.619751 1580.973022 1540.495728 1471.255005 1404.001587 1248.835449 1136.095459 1120.235718 1199.489990 1344.504028 1529.882935 1591.528198 1675.000000 1616.829224 1575.000000 1484.018677 1398.443726 1342.659546 1349.296753 1264.941895 1245.628052
-9999.0 -9999.0 -9999.0 -9999.0 -9999.0 -9999.0 -9999.0 -9999.0 -9999.0 -9999.0 -9999.0 -9999.0 -9999.0 -9999.0 -9999.0 -9999.0 -9999.0 -9999.0 -9999.0 -9999.0 -9999.0 -9999.0 -9999.0 -9999.0 2150.967041 2062.051270 1952.283081 1875.000000 1821.038330 1789.848755 1934.215454 2037.956543 2140.622559 2148.127197 2172.835693 2106.192383 2165.215576 2177.018066 2165.508301 2244.169434 2216.037109 2187.716309 2132.821289 1969.275757 1972.295166 1851.036621 1773.425781 1757.403076 1667.592896 1625.000000 1550.000000 1493.434326 1351.331055 1199.417358 1120.235718 1181.096924 1358.755127 1454.868164 1511.947510 1632.816650 1522.253052 1542.372803 1472.455688 1401.698120 1355.735840 1283.850464 1286.816406 1199.783691
-9999.0 -9999.0 -9999.0 -9999.0 -9999.0 -9999.0 -9999.0 -9999.0 -9999.0 -9999.0 -9999.0 -9999.0 -9999.0 -9999.0 -9999.0 -9999.0 -9999.0 -9999.0 -9999.0 -9999.0 -9999.0 -9999.0 -9999.0 2340.852783 2289.313721 2246.461182 2101.381592 2016.237183 1904.539429 1746.280029 1799.386719 1980.832520 2085.185547 2169.477539 2237.866699 2236.390869 2314.915527 2270.141846 2277.429199 2345.242432 2267.821045 2201.428223 2190.347168 2163.274658 2120.065186 2080.530029 1991.674194 1799.485596 1663.675171 1535.365967 1483.464600 1477.270142 1475.000000 1292.283813 1194.696899 1120.235718 1229.176147 1280.685303 1390.774536 1518.585938 1458.502319 1495.696289 1424.790161 1396.925049 1329.326538 1259.770508 1181.362793 1181.362793
-9999.0 -9999.0 -9999.0 -9999.0 -9999.0 -9999.0 -9999.0 -9999.0 -9999.0 -9999.0 -9999.0 -9999.0 -9999.0 -9999.0 -9999.0 -9999.0 -9999.0 -9999.0 -9999.0 -9999.0 -9999.0 -9999.0 -9999.0 2429.820068 2393.158203 2337.119385 2283.477783 2132.499268 1799.558105 1702.735474 1725.052490 1891.144165 1911.240845 2006.786743 2084.383789 2308.930420 2278.494873 2237.925293 2287.516357 2225.000000 2325.000000 2345.138428 2337.145996 2368.873535 2313.613525 2169.299561 2037.514404 1874.871826 1723.898682 1570.676758 1414.495483 1292.177246 1333.486694 1323.415771 1058.858032 1070.790039 1177.855957 1313.985962 1383.879272 1493.565186 1389.760010 1388.649414 1334.406616 1258.797729 1178.463745 1147.222778 1208.399292 1322.039673
-9999.0 -9999.0 -9999.0 -9999.0 -9999.0 -9999.0 -9999.0 -9999.0 -9999.0 -9999.0 -9999.0 -9999.0 -9999.0 -9999.0 -9999.0 -9999.0 -9999.0 -9999.0 -9999.0 -9999.0 -9999.0 -9999.0 2558.597900 2510.979492 2510.521240 2616.689209 2415.387451 2175.870117 1867.074951 1687.220703 1677.434570 1760.279907 1753.839233 1867.424683 2015.795044 2195.624512 2221.049316 2125.474609 2175.000000 2128.325928 2242.543213 2221.316406 2127.347656 2202.580566 2189.167236 2182.535645 2066.560547 1903.086792 1745.081543 1652.632202 1450.853638 1252.798828 1216.261475 1261.680298 1076.264038 1050.197266 1161.131226 1136.568848 1206.496338 1258.360107 1294.586060 1216.016357 1178.823120 1108.636597 1147.222778 1246.461548 1323.381714 1459.826782