ncols         148
nrows         61
xllcorner     702860
yllcorner     5152215
cellsize      10.000000
NODATA_value  -9999.0
-9999.0 -9999.0 -9999.0 -9999.0 2416.389893 2410.770020 2405.520020 2405.399902 2402.229980 2399.239990 2398.030029 2400.020020 2400.620117 2393.889893 2388.449951 2385.070068 2383.629883 2382.550049 -9999.0 -9999.0 -9999.0 -9999.0 -9999.0 -9999.0 -9999.0 -9999.0 -9999.0 -9999.0 -9999.0 -9999.0 -9999.0 -9999.0 -9999.0 -9999.0 -9999.0 -9999.0 -9999.0 -9999.0 -9999.0 -9999.0 -9999.0 -9999.0 -9999.0 -9999.0 -9999.0 -9999.0 -9999.0 -9999.0 -9999.0 -9999.0 -9999.0 -9999.0 -9999.0 -9999.0 -9999.0 -9999.0 -9999.0 -9999.0 -9999.0 -9999.0 -9999.0 -9999.0 -9999.0 -9999.0 -9999.0 -9999.0 -9999.0 -9999.0 -9999.0 -9999.0 -9999.0 -9999.0 -9999.0 -9999.0 -9999.0 -9999.0 -9999.0 -9999.0 -9999.0 -9999.0 -9999.0 -9999.0 -9999.0 -9999.0 -9999.0 -9999.0 2255.090088 2254.169922 2253.459961 2252.419922 2250.159912 2247.139893 2243.979980 2240.060059 2236.699951 2235.209961 2233.649902 2232.870117 2233.020020 2233.189941 2234.620117 2235.270020 2234.800049 2235.600098 2237.719971 2240.340088 2244.290039 2246.320068 2249.580078 2250.620117 2251.989990 -9999.0 -9999.0 -9999.0 -9999.0 -9999.0 -9999.0 -9999.0 -9999.0 -9999.0 -9999.0 -9999.0 -9999.0 -9999.0 -9999.0 -9999.0 -9999.0 -9999.0 -9999.0 -9999.0 -9999.0 -9999.0 -9999.0 -9999.0 -9999.0 -9999.0 -9999.0 -9999.0 -9999.0 -9999.0 -9999.0 -9999.0 -9999.0 -9999.0 -9999.0 -9999.0 -9999.0 -9999.0
-9999.0 -9999.0 -9999.0 -9999.0 -9999.0 2410.209961 2402.590088 2400.560059 2398.020020 2393.360107 2391.709961 2394.000000 2394.989990 2390.360107 2383.429932 2378.080078 2376.179932 2374.419922 2371.639893 -9999.0 -9999.0 -9999.0 -9999.0 -9999.0 -9999.0 -9999.0 -9999.0 -9999.0 -9999.0 -9999.0 -9999.0 -9999.0 -9999.0 -9999.0 -9999.0 -9999.0 -9999.0 -9999.0 -9999.0 -9999.0 -9999.0 -9999.0 -9999.0 -9999.0 -9999.0 -9999.0 -9999.0 -9999.0 -9999.0 -9999.0 -9999.0 -9999.0 -9999.0 -9999.0 -9999.0 -9999.0 -9999.0 -9999.0 -9999.0 -9999.0 -9999.0 -9999.0 -9999.0 -9999.0 -9999.0 -9999.0 -9999.0 -9999.0 -9999.0 -9999.0 -9999.0 -9999.0 -9999.0 -9999.0 -9999.0 -9999.0 -9999.0 -9999.0 -9999.0 -9999.0 -9999.0 -9999.0 -9999.0 2256.360107 2256.260010 2255.820068 2254.810059 2253.469971 2252.290039 2249.340088 2246.760010 2245.340088 2241.489990 2236.840088 2233.489990 2231.030029 2229.459961 2229.159912 2230.469971 2230.120117 2231.199951 2232.350098 2232.949951 2232.270020 2233.770020 2237.100098 2239.820068 2241.979980 2244.350098 2247.959961 2251.340088 2253.790039 2256.629883 2259.870117 2263.830078 2267.600098 2269.870117 2271.790039 2272.729980 2274.520020 -9999.0 -9999.0 -9999.0 -9999.0 -9999.0 -9999.0 -9999.0 -9999.0 -9999.0 -9999.0 -9999.0 -9999.0 -9999.0 -9999.0 -9999.0 2290.669922 2292.479980 -9999.0 -9999.0 -9999.0 -9999.0 -9999.0 -9999.0 -9999.0 -9999.0 -9999.0 -9999.0 -9999.0
-9999.0 -9999.0 -9999.0 -9999.0 -9999.0 -9999.0 2400.510010 2394.159912 2391.929932 2388.459961 2386.080078 2387.280029 2388.219971 2386.429932 2378.709961 2371.510010 2368.120117 2367.409912 2364.889893 2361.090088 2355.689941 -9999.0 -9999.0 -9999.0 -9999.0 -9999.0 -9999.0 -9999.0 -9999.0 -9999.0 -9999.0 -9999.0 -9999.0 -9999.0 -9999.0 -9999.0 -9999.0 -9999.0 -9999.0 -9999.0 -9999.0 -9999.0 -9999.0 -9999.0 -9999.0 -9999.0 -9999.0 -9999.0 -9999.0 -9999.0 -9999.0 -9999.0 -9999.0 -9999.0 -9999.0 -9999.0 -9999.0 -9999.0 -9999.0 -9999.0 -9999.0 -9999.0 -9999.0 -9999.0 -9999.0 -9999.0 -9999.0 -9999.0 -9999.0 -9999.0 -9999.0 -9999.0 -9999.0 -9999.0 -9999.0 -9999.0 -9999.0 -9999.0 -9999.0 -9999.0 -9999.0 -9999.0 -9999.0 2255.199951 2254.679932 2254.469971 2253.550049 2249.860107 2248.340088 2246.239990 2243.530029 2241.080078 2238.310059 2234.580078 2231.250000 2229.399902 2228.409912 2227.199951 2227.389893 2227.840088 2228.949951 2229.949951 2230.270020 2228.370117 2229.580078 2232.489990 2234.840088 2236.469971 2238.040039 2240.570068 2246.219971 2251.219971 2256.030029 2259.669922 2263.250000 2266.770020 2269.419922 2271.510010 2272.760010 2274.239990 2276.169922 2277.870117 2278.889893 2279.679932 -9999.0 -9999.0 -9999.0 -9999.0 2283.590088 2284.340088 -9999.0 -9999.0 2287.050049 2288.270020 2289.489990 2290.979980 2292.889893 -9999.0 -9999.0 -9999.0 -9999.0 -9999.0 -9999.0 -9999.0 -9999.0 -9999.0 -9999.0 -9999.0
-9999.0 -9999.0 -9999.0 -9999.0 -9999.0 -9999.0 -9999.0 2391.110107 2384.800049 2381.479980 2378.899902 2379.679932 2380.389893 2379.030029 2374.010010 2366.709961 2360.350098 2359.010010 2357.300049 2354.000000 2349.280029 2344.489990 2339.169922 2333.459961 2327.669922 2320.760010 2314.659912 -9999.0 -9999.0 -9999.0 -9999.0 -9999.0 -9999.0 -9999.0 -9999.0 -9999.0 -9999.0 -9999.0 -9999.0 -9999.0 -9999.0 -9999.0 -9999.0 -9999.0 -9999.0 -9999.0 -9999.0 -9999.0 -9999.0 -9999.0 -9999.0 -9999.0 -9999.0 -9999.0 -9999.0 -9999.0 -9999.0 -9999.0 -9999.0 -9999.0 -9999.0 -9999.0 -9999.0 -9999.0 -9999.0 -9999.0 -9999.0 -9999.0 -9999.0 -9999.0 -9999.0 -9999.0 -9999.0 -9999.0 -9999.0 -9999.0 -9999.0 -9999.0 -9999.0 -9999.0 -9999.0 -9999.0 2253.750000 2252.719971 2250.909912 2249.719971 2246.979980 2245.520020 2243.879883 2242.510010 2240.610107 2239.000000 2236.840088 2234.929932 2231.330078 2228.739990 2227.520020 2226.629883 2226.429932 2226.219971 2227.080078 2227.649902 2227.010010 2225.050049 2227.129883 2229.310059 2230.669922 2232.489990 2234.469971 2236.649902 2240.820068 2245.000000 2249.469971 2253.600098 2260.580078 2264.469971 2267.120117 2269.600098 2271.270020 2273.620117 2275.409912 2277.409912 2278.610107 2279.870117 2280.669922 -9999.0 -9999.0 2282.610107 2282.959961 2283.419922 2284.149902 2285.250000 2286.179932 2287.250000 2288.209961 2289.820068 2291.780029 -9999.0 -9999.0 -9999.0 -9999.0 -9999.0 -9999.0 -9999.0 -9999.0 -9999.0 -9999.0 -9999.0
-9999.0 -9999.0 -9999.0 -9999.0 -9999.0 -9999.0 -9999.0 -9999.0 2382.620117 2375.020020 2372.959961 2372.570068 2373.459961 2374.570068 2368.229980 2362.169922 2355.330078 2351.100098 2350.330078 2348.260010 2343.939941 2339.409912 2334.840088 2329.689941 2324.340088 2319.729980 2313.310059 2308.090088 2304.000000 -9999.0 -9999.0 -9999.0 -9999.0 -9999.0 -9999.0 -9999.0 -9999.0 -9999.0 -9999.0 -9999.0 -9999.0 -9999.0 -9999.0 -9999.0 -9999.0 -9999.0 -9999.0 -9999.0 -9999.0 -9999.0 -9999.0 -9999.0 -9999.0 -9999.0 -9999.0 -9999.0 -9999.0 -9999.0 -9999.0 -9999.0 -9999.0 -9999.0 -9999.0 -9999.0 -9999.0 -9999.0 -9999.0 -9999.0 -9999.0 -9999.0 -9999.0 -9999.0 -9999.0 -9999.0 -9999.0 -9999.0 -9999.0 -9999.0 -9999.0 -9999.0 -9999.0 -9999.0 2253.040039 2251.939941 2249.389893 2246.639893 2243.810059 2241.239990 2239.449951 2239.179932 2237.189941 2235.419922 2234.560059 2232.669922 2231.479980 2229.580078 2227.750000 2226.629883 2225.510010 2225.250000 2225.679932 2225.530029 2224.129883 2223.449951 2225.469971 2226.899902 2228.600098 2230.689941 2231.830078 2234.370117 2236.879883 2239.149902 2243.419922 2247.469971 2253.719971 2258.810059 2263.219971 2266.639893 2268.790039 2270.860107 2272.949951 2274.989990 2276.629883 2278.590088 2279.909912 2281.030029 2281.370117 2281.590088 2281.739990 2282.219971 2282.669922 2283.260010 2284.409912 2285.790039 2286.780029 2287.989990 2289.620117 2291.729980 -9999.0 -9999.0 -9999.0 -9999.0 -9999.0 -9999.0 -9999.0 -9999.0 -9999.0 -9999.0
-9999.0 -9999.0 -9999.0 -9999.0 -9999.0 -9999.0 -9999.0 -9999.0 2380.110107 2372.219971 2366.489990 2366.449951 2367.050049 2365.590088 2363.760010 2357.639893 2351.649902 2345.959961 2344.050049 2342.540039 2339.399902 2335.600098 2330.800049 2325.919922 2320.889893 2316.949951 2312.030029 2307.800049 2302.879883 2298.929932 2295.139893 2291.699951 -9999.0 -9999.0 -9999.0 -9999.0 -9999.0 -9999.0 -9999.0 -9999.0 -9999.0 -9999.0 -9999.0 -9999.0 -9999.0 -9999.0 -9999.0 -9999.0 -9999.0 -9999.0 -9999.0 -9999.0 -9999.0 -9999.0 -9999.0 -9999.0 -9999.0 -9999.0 -9999.0 -9999.0 -9999.0 -9999.0 -9999.0 -9999.0 -9999.0 -9999.0 -9999.0 -9999.0 -9999.0 -9999.0 -9999.0 -9999.0 -9999.0 -9999.0 -9999.0 -9999.0 -9999.0 2246.979980 2248.860107 -9999.0 2251.399902 2252.209961 2251.969971 2251.020020 2248.949951 2245.500000 2242.270020 2239.189941 2237.149902 2236.659912 2235.449951 2234.030029 2232.100098 2230.780029 2230.600098 2229.120117 2227.600098 2226.060059 2224.260010 2224.050049 2223.419922 2223.340088 2221.899902 2221.689941 2222.850098 2224.500000 2226.370117 2228.360107 2230.449951 2232.689941 2235.459961 2238.050049 2240.179932 2243.989990 2248.500000 2253.310059 2257.570068 2260.850098 2263.699951 2266.219971 2268.550049 2271.340088 2273.820068 2276.070068 2277.840088 2279.340088 2280.000000 2280.379883 2280.449951 2280.340088 2280.689941 2281.020020 2281.929932 2283.459961 2284.729980 2286.120117 2287.340088 2289.620117 -9999.0 -9999.0 -9999.0 -9999.0 -9999.0 -9999.0 -9999.0 -9999.0 -9999.0 -9999.0
-9999.0 -9999.0 -9999.0 -9999.0 -9999.0 -9999.0 -9999.0 -9999.0 -9999.0 2369.760010 2361.520020 2358.709961 2358.979980 2357.389893 2356.520020 2353.379883 2347.439941 2341.350098 2338.000000 2335.929932 2332.969971 2330.209961 2327.100098 2322.219971 2317.860107 2314.219971 2309.840088 2305.620117 2301.110107 2296.629883 2293.070068 2289.600098 2286.879883 2283.649902 -9999.0 -9999.0 -9999.0 -9999.0 -9999.0 -9999.0 -9999.0 -9999.0 -9999.0 -9999.0 -9999.0 -9999.0 -9999.0 -9999.0 -9999.0 -9999.0 -9999.0 -9999.0 -9999.0 -9999.0 -9999.0 -9999.0 -9999.0 -9999.0 -9999.0 -9999.0 -9999.0 -9999.0 -9999.0 -9999.0 -9999.0 -9999.0 -9999.0 -9999.0 -9999.0 -9999.0 -9999.0 -9999.0 -9999.0 -9999.0 -9999.0 2238.030029 2241.219971 2245.570068 2247.530029 2249.000000 2250.149902 2250.790039 2249.989990 2249.679932 2247.550049 2244.270020 2240.590088 2237.850098 2234.850098 2233.540039 2233.020020 2233.129883 2231.449951 2228.739990 2227.929932 2227.280029 2226.360107 2225.340088 2224.000000 2223.320068 2221.919922 2220.969971 2219.689941 2219.699951 2221.419922 2222.899902 2224.360107 2226.510010 2228.780029 2231.870117 2234.360107 2236.669922 2238.729980 2241.340088 2244.340088 2247.919922 2251.639893 2255.550049 2258.020020 2259.870117 2262.649902 2265.879883 2268.290039 2271.030029 2273.350098 2276.090088 2277.500000 2278.199951 2278.100098 2277.790039 2278.050049 2277.959961 2278.330078 2279.590088 2281.270020 2282.850098 2284.300049 2286.219971 2287.949951 -9999.0 -9999.0 -9999.0 -9999.0 -9999.0 -9999.0 -9999.0 -9999.0 -9999.0
-9999.0 -9999.0 -9999.0 -9999.0 -9999.0 -9999.0 -9999.0 -9999.0 -9999.0 2367.090088 2358.689941 2351.899902 2350.370117 2348.320068 2347.540039 2348.739990 2343.350098 2337.570068 2332.379883 2328.550049 2325.419922 2324.229980 2321.300049 2317.139893 2313.330078 2310.530029 2306.989990 2302.939941 2299.090088 2295.560059 2291.620117 2288.540039 2285.209961 2282.479980 2279.520020 2276.550049 -9999.0 -9999.0 -9999.0 -9999.0 -9999.0 -9999.0 -9999.0 -9999.0 -9999.0 -9999.0 -9999.0 -9999.0 -9999.0 -9999.0 -9999.0 -9999.0 -9999.0 -9999.0 -9999.0 -9999.0 -9999.0 -9999.0 -9999.0 -9999.0 -9999.0 -9999.0 -9999.0 -9999.0 -9999.0 -9999.0 -9999.0 -9999.0 -9999.0 -9999.0 -9999.0 -9999.0 2251.310059 2245.290039 2239.919922 2237.040039 2236.360107 2237.580078 2240.030029 2242.629883 2244.340088 2243.100098 2241.810059 2242.429932 2242.989990 2241.760010 2239.479980 2237.590088 2234.580078 2232.729980 2231.699951 2230.580078 2230.040039 2228.750000 2226.540039 2224.729980 2224.550049 2223.909912 2223.159912 2222.439941 2221.659912 2219.139893 2217.620117 2216.800049 2219.110107 2220.290039 2222.090088 2224.909912 2227.340088 2229.850098 2232.260010 2234.699951 2236.350098 2239.129883 2241.189941 2243.070068 2246.250000 2249.620117 2252.320068 2254.060059 2256.270020 2259.879883 2262.139893 2264.429932 2266.919922 2268.429932 2269.790039 2272.219971 2273.679932 2274.110107 2273.959961 2273.189941 2272.989990 2273.669922 2274.780029 2276.530029 2278.770020 2280.639893 -9999.0 -9999.0 -9999.0 -9999.0 -9999.0 -9999.0 -9999.0 -9999.0 -9999.0 -9999.0
-9999.0 -9999.0 -9999.0 -9999.0 -9999.0 -9999.0 -9999.0 -9999.0 -9999.0 2362.649902 2356.810059 2348.590088 2343.560059 2341.219971 2340.760010 2342.479980 2340.860107 2335.290039 2329.090088 2324.669922 2320.729980 2317.639893 2315.939941 2312.070068 2309.239990 2306.590088 2303.659912 2300.419922 2297.300049 2293.360107 2289.879883 2286.709961 2283.870117 2281.110107 2278.540039 2276.189941 2273.639893 2271.350098 2268.449951 2266.500000 2264.229980 -9999.0 -9999.0 -9999.0 -9999.0 -9999.0 -9999.0 2263.540039 2266.979980 2271.070068 2274.050049 -9999.0 -9999.0 -9999.0 -9999.0 -9999.0 -9999.0 -9999.0 -9999.0 -9999.0 -9999.0 -9999.0 -9999.0 -9999.0 -9999.0 -9999.0 -9999.0 -9999.0 -9999.0 -9999.0 2259.310059 2254.649902 2248.669922 2241.550049 2236.219971 2233.750000 2233.489990 2233.000000 2233.770020 2236.239990 2236.320068 2235.139893 2234.000000 2235.110107 2237.439941 2238.510010 2238.139893 2236.570068 2233.870117 2232.439941 2231.810059 2230.760010 2228.929932 2226.939941 2225.760010 2224.040039 2222.310059 2221.750000 2221.260010 2220.840088 2220.139893 2218.709961 2216.360107 2214.449951 2214.699951 2217.739990 2219.850098 2223.050049 2225.169922 2227.310059 2229.689941 2232.479980 2235.300049 2237.350098 2239.389893 2241.389893 2244.010010 2246.389893 2248.199951 2248.610107 2248.820068 2253.679932 2255.719971 2258.080078 2260.379883 2262.050049 2263.739990 2265.120117 2266.080078 2267.100098 2267.379883 2267.270020 2267.530029 2268.489990 2269.570068 2270.659912 2273.360107 2275.709961 -9999.0 -9999.0 -9999.0 -9999.0 -9999.0 -9999.0 -9999.0 -9999.0 -9999.0 -9999.0
-9999.0 -9999.0 -9999.0 -9999.0 -9999.0 -9999.0 -9999.0 -9999.0 -9999.0 2357.100098 2352.739990 2348.280029 2341.020020 2337.159912 2335.300049 2335.560059 2335.909912 2332.129883 2327.479980 2321.719971 2317.810059 2313.959961 2311.270020 2307.770020 2305.459961 2303.560059 2300.919922 2297.810059 2294.820068 2291.669922 2288.919922 2285.850098 2282.669922 2279.360107 2277.000000 2275.449951 2272.860107 2270.979980 2268.550049 2265.959961 2264.050049 2261.719971 2260.040039 -9999.0 -9999.0 -9999.0 2262.030029 2262.030029 2265.500000 2269.750000 2274.350098 -9999.0 -9999.0 -9999.0 2276.750000 2276.409912 2275.340088 2274.300049 2273.810059 2273.919922 2274.280029 2274.340088 2274.030029 -9999.0 -9999.0 -9999.0 2271.429932 2269.189941 2265.479980 2260.719971 2255.889893 2251.120117 2244.530029 2237.639893 2233.270020 2229.729980 2229.100098 2230.100098 2229.929932 2232.139893 2232.310059 2231.250000 2230.489990 2231.010010 2232.489990 2234.429932 2235.620117 2234.310059 2233.560059 2233.500000 2232.149902 2230.729980 2229.050049 2226.620117 2224.379883 2222.949951 2221.570068 2219.719971 2219.790039 2219.229980 2219.120117 2217.439941 2215.489990 2213.689941 2211.780029 2214.550049 2217.800049 2221.669922 2223.790039 2225.989990 2227.850098 2230.080078 2233.310059 2236.340088 2237.649902 2239.840088 2241.939941 2244.179932 2244.669922 2244.389893 2245.489990 2249.280029 2250.439941 2253.320068 2255.159912 2256.550049 2258.290039 2258.830078 2258.820068 2260.860107 2262.379883 2262.739990 2263.389893 2264.229980 2265.070068 2266.770020 2268.570068 -9999.0 -9999.0 -9999.0 -9999.0 -9999.0 -9999.0 -9999.0 -9999.0 -9999.0 -9999.0 -9999.0
-9999.0 -9999.0 -9999.0 -9999.0 -9999.0 -9999.0 -9999.0 -9999.0 -9999.0 2349.879883 2346.510010 2344.659912 2341.300049 2333.810059 2330.350098 2328.310059 2328.770020 2327.010010 2322.919922 2319.760010 2315.810059 2311.469971 2307.949951 2304.909912 2301.899902 2299.919922 2297.679932 2295.100098 2292.469971 2289.570068 2286.699951 2283.949951 2280.939941 2278.399902 2276.090088 2274.159912 2271.879883 2269.600098 2267.360107 2265.040039 2262.659912 2261.060059 2259.370117 2259.209961 2259.610107 2260.250000 2259.280029 2259.479980 2263.239990 2267.939941 2273.620117 2276.479980 2275.370117 2272.389893 2271.050049 2270.429932 2269.800049 2270.449951 2269.459961 2269.310059 2269.350098 2270.590088 2269.870117 2268.689941 2267.429932 2267.360107 2266.189941 2263.850098 2259.979980 2255.139893 2250.110107 2244.189941 2239.030029 2234.090088 2229.750000 2227.229980 2225.780029 2226.489990 2227.050049 2227.050049 2227.090088 2226.260010 2225.729980 2226.810059 2228.530029 2230.090088 2231.270020 2231.929932 2232.050049 2232.919922 2232.459961 2230.860107 2229.199951 2226.689941 2223.510010 2220.649902 2219.209961 2217.929932 2216.530029 2216.969971 2217.040039 2215.580078 2213.540039 2212.590088 2210.159912 2211.639893 2216.620117 2219.919922 2222.199951 2223.959961 2226.320068 2228.419922 2231.350098 2233.879883 2236.270020 2237.699951 2240.179932 2241.040039 2242.080078 2242.709961 2244.739990 2245.629883 2246.629883 2247.830078 2249.399902 2251.370117 2252.090088 2252.199951 2251.340088 2254.100098 2256.330078 2256.699951 2256.709961 2259.379883 2260.409912 2261.739990 -9999.0 -9999.0 -9999.0 -9999.0 -9999.0 -9999.0 -9999.0 -9999.0 -9999.0 -9999.0 -9999.0 -9999.0
-9999.0 -9999.0 -9999.0 -9999.0 -9999.0 -9999.0 -9999.0 -9999.0 -9999.0 2343.040039 2339.620117 2338.330078 2337.979980 2334.129883 2326.280029 2322.489990 2320.360107 2320.209961 2316.600098 2315.459961 2313.729980 2310.659912 2305.399902 2302.350098 2299.689941 2296.860107 2294.090088 2292.149902 2289.560059 2287.149902 2284.580078 2281.979980 2279.250000 2277.060059 2274.969971 2272.879883 2270.580078 2267.810059 2264.889893 2263.510010 2261.000000 2259.699951 2258.909912 2258.530029 2260.080078 2259.520020 2256.429932 2255.850098 2258.649902 2262.820068 2268.219971 2267.739990 2267.100098 2263.879883 2262.389893 2261.330078 2260.820068 2262.179932 2262.850098 2261.989990 2260.620117 2261.929932 2261.000000 2260.350098 2260.399902 2259.850098 2257.050049 2256.110107 2252.429932 2247.959961 2243.310059 2239.419922 2234.939941 2231.030029 2227.489990 2225.250000 2223.550049 2223.479980 2223.479980 2224.270020 2224.080078 2222.729980 2221.370117 2221.199951 2222.760010 2224.820068 2226.669922 2227.620117 2229.120117 2230.020020 2230.800049 2230.760010 2228.909912 2226.600098 2223.540039 2219.939941 2216.760010 2215.600098 2213.800049 2213.169922 2213.760010 2212.060059 2211.110107 2209.830078 2208.530029 2210.860107 2214.469971 2216.889893 2219.300049 2221.000000 2222.929932 2225.479980 2228.679932 2231.639893 2234.120117 2236.280029 2238.169922 2239.199951 2240.750000 2241.899902 2241.679932 2242.949951 2243.169922 2243.540039 2245.229980 2245.790039 2246.300049 2246.370117 2246.280029 2249.350098 2250.000000 2250.429932 2250.889893 2253.620117 2255.699951 2255.739990 -9999.0 -9999.0 -9999.0 -9999.0 -9999.0 -9999.0 -9999.0 -9999.0 -9999.0 -9999.0 -9999.0 -9999.0
-9999.0 -9999.0 -9999.0 -9999.0 -9999.0 -9999.0 -9999.0 -9999.0 -9999.0 -9999.0 2334.050049 2332.790039 2333.250000 2332.939941 2324.739990 2319.330078 2316.449951 2313.639893 2312.110107 2308.780029 2306.979980 2304.639893 2301.340088 2299.260010 2297.260010 2294.479980 2291.739990 2289.409912 2287.030029 2284.439941 2282.459961 2280.080078 2277.810059 2275.060059 2272.810059 2270.679932 2268.919922 2266.909912 2263.719971 2261.850098 2259.840088 2258.689941 2257.919922 2257.850098 2258.520020 2261.729980 2257.919922 2254.639893 2255.169922 2257.149902 2260.800049 2261.010010 2259.229980 2258.159912 2255.830078 2255.040039 2253.790039 2255.149902 2257.219971 2258.229980 2255.729980 2254.969971 2254.229980 2253.179932 2253.199951 2252.179932 2249.889893 2248.020020 2247.100098 2243.139893 2239.129883 2236.300049 2233.379883 2228.840088 2226.310059 2223.840088 2222.290039 2221.179932 2220.790039 2220.709961 2220.570068 2219.479980 2217.580078 2217.699951 2218.929932 2220.100098 2221.520020 2222.750000 2223.870117 2225.510010 2225.219971 2226.389893 2227.879883 2226.040039 2223.389893 2219.870117 2216.290039 2213.010010 2211.360107 2209.949951 2209.879883 2209.340088 2208.979980 2207.639893 2206.850098 2209.179932 2211.889893 2214.129883 2216.350098 2218.479980 2220.419922 2222.969971 2225.669922 2228.510010 2231.820068 2234.040039 2236.149902 2238.189941 2239.169922 2239.580078 2239.750000 2240.040039 2240.469971 2240.959961 2241.719971 2241.989990 2242.409912 2242.469971 2244.340088 2245.580078 2245.399902 2244.939941 2245.729980 2247.780029 2249.590088 2250.860107 -9999.0 -9999.0 -9999.0 -9999.0 -9999.0 -9999.0 -9999.0 -9999.0 -9999.0 -9999.0 -9999.0 -9999.0
-9999.0 -9999.0 -9999.0 -9999.0 -9999.0 -9999.0 -9999.0 -9999.0 -9999.0 -9999.0 2330.750000 2327.780029 2327.770020 2330.060059 2324.959961 2317.459961 2313.899902 2310.399902 2306.919922 2303.459961 2301.189941 2300.689941 2297.689941 2296.129883 2295.189941 2292.550049 2289.830078 2287.580078 2285.219971 2282.800049 2280.439941 2278.370117 2276.120117 2273.850098 2271.290039 2268.959961 2266.699951 2263.939941 2262.449951 2260.500000 2259.250000 2258.100098 2256.919922 2256.080078 2256.780029 2260.739990 2257.860107 2253.719971 2253.129883 2253.560059 2255.949951 2256.179932 2254.850098 2254.550049 2251.840088 2250.800049 2250.510010 2253.350098 2253.830078 2254.629883 2253.909912 2251.560059 2249.229980 2247.550049 2247.899902 2246.199951 2244.389893 2242.989990 2242.409912 2239.850098 2237.709961 2235.459961 2232.580078 2229.060059 2224.560059 2222.669922 2221.780029 2220.239990 2218.719971 2217.879883 2216.729980 2217.139893 2214.689941 2214.770020 2216.229980 2217.750000 2217.070068 2218.500000 2219.419922 2220.820068 2221.360107 2221.209961 2223.080078 2224.669922 2222.340088 2219.469971 2215.830078 2212.800049 2210.370117 2208.379883 2208.020020 2207.760010 2206.820068 2205.189941 2205.000000 2206.909912 2209.199951 2211.679932 2213.899902 2216.370117 2218.260010 2220.399902 2223.219971 2226.010010 2228.270020 2230.689941 2233.879883 2236.139893 2237.520020 2238.219971 2237.969971 2238.300049 2238.870117 2239.250000 2239.919922 2240.300049 2240.340088 2240.979980 2241.919922 2242.610107 2242.500000 2242.070068 2242.270020 2243.360107 2244.610107 -9999.0 -9999.0 -9999.0 -9999.0 -9999.0 -9999.0 -9999.0 -9999.0 -9999.0 -9999.0 -9999.0 -9999.0 -9999.0
-9999.0 -9999.0 -9999.0 -9999.0 -9999.0 -9999.0 -9999.0 -9999.0 -9999.0 -9999.0 2325.979980 2323.020020 2322.159912 2323.689941 2322.489990 2317.800049 2312.760010 2309.020020 2305.429932 2302.090088 2299.129883 2296.489990 2294.510010 2292.689941 2292.429932 2290.600098 2287.899902 2285.610107 2283.399902 2280.750000 2278.810059 2276.739990 2274.439941 2272.179932 2269.800049 2267.600098 2265.370117 2263.340088 2261.239990 2260.100098 2258.169922 2257.189941 2255.310059 2255.120117 2255.010010 2257.399902 2255.790039 2252.580078 2251.959961 2252.000000 2251.889893 2250.649902 2249.590088 2249.820068 2247.570068 2246.199951 2248.229980 2250.350098 2249.629883 2249.590088 2248.919922 2246.959961 2245.290039 2244.580078 2243.330078 2241.729980 2239.659912 2238.120117 2237.209961 2236.570068 2235.379883 2232.080078 2230.030029 2226.399902 2223.320068 2222.320068 2220.969971 2219.699951 2219.020020 2218.810059 2217.620117 2216.620117 2217.129883 2214.250000 2212.830078 2215.479980 2215.350098 2214.770020 2214.159912 2215.320068 2216.379883 2217.649902 2218.030029 2219.360107 2219.879883 2218.090088 2215.520020 2212.620117 2210.129883 2207.760010 2206.639893 2206.320068 2205.229980 2204.449951 2204.000000 2204.750000 2206.780029 2208.810059 2211.399902 2213.290039 2215.100098 2217.360107 2219.830078 2221.379883 2221.600098 2225.199951 2229.459961 2232.250000 2233.739990 2235.080078 2234.419922 2233.979980 2235.560059 2236.850098 2237.020020 2236.159912 2234.879883 2238.570068 2240.540039 2240.620117 2240.300049 2239.050049 2239.280029 2241.479980 2243.520020 -9999.0 -9999.0 -9999.0 -9999.0 -9999.0 -9999.0 -9999.0 -9999.0 -9999.0 -9999.0 -9999.0 -9999.0 -9999.0
-9999.0 -9999.0 -9999.0 -9999.0 -9999.0 -9999.0 -9999.0 -9999.0 -9999.0 -9999.0 2320.649902 2318.899902 2316.580078 2317.570068 2317.570068 2314.500000 2312.580078 2308.320068 2303.729980 2301.169922 2297.860107 2295.229980 2293.129883 2290.959961 2289.429932 2288.100098 2286.379883 2284.219971 2281.360107 2279.189941 2276.820068 2274.850098 2272.409912 2270.149902 2268.060059 2265.850098 2263.750000 2262.290039 2260.439941 2259.229980 2257.469971 2255.919922 2254.719971 2254.239990 2253.449951 2254.159912 2254.429932 2251.570068 2250.530029 2249.969971 2250.679932 2246.889893 2245.909912 2246.070068 2244.189941 2243.840088 2243.870117 2243.929932 2244.330078 2244.080078 2243.500000 2242.879883 2241.639893 2240.100098 2239.570068 2238.370117 2236.320068 2234.260010 2232.219971 2231.479980 2231.449951 2228.629883 2225.260010 2224.000000 2223.050049 2221.629883 2220.729980 2219.989990 2219.989990 2220.010010 2219.199951 2218.659912 2217.689941 2215.550049 2210.899902 2210.550049 2212.729980 2211.959961 2210.770020 2210.179932 2209.780029 2210.500000 2212.560059 2214.110107 2213.929932 2213.520020 2213.070068 2211.520020 2208.800049 2206.340088 2205.409912 2205.090088 2204.199951 2203.260010 2202.770020 2202.889893 2204.199951 2205.520020 2207.689941 2209.300049 2211.110107 2213.060059 2215.129883 2213.790039 2215.649902 2219.219971 2223.260010 2226.050049 2225.959961 2227.699951 2228.610107 2225.610107 2227.030029 2229.159912 2230.330078 2227.659912 2229.699951 2233.870117 2235.800049 2236.909912 2236.780029 2236.379883 2234.689941 2239.379883 2245.550049 -9999.0 -9999.0 -9999.0 -9999.0 -9999.0 -9999.0 -9999.0 -9999.0 -9999.0 -9999.0 -9999.0 -9999.0 -9999.0
-9999.0 -9999.0 -9999.0 -9999.0 -9999.0 -9999.0 -9999.0 -9999.0 -9999.0 -9999.0 2316.300049 2315.360107 2313.439941 2311.870117 2312.290039 2310.959961 2307.459961 2305.120117 2301.389893 2299.260010 2296.419922 2293.870117 2291.429932 2289.770020 2287.909912 2286.100098 2284.340088 2282.500000 2280.100098 2277.860107 2275.620117 2273.209961 2271.260010 2268.610107 2266.760010 2264.719971 2262.840088 2261.570068 2259.820068 2258.100098 2256.719971 2255.659912 2254.270020 2253.250000 2252.040039 2251.090088 2252.189941 2250.050049 2248.729980 2248.560059 2249.129883 2244.889893 2243.159912 2242.469971 2241.840088 2241.810059 2241.560059 2241.389893 2241.560059 2241.060059 2240.800049 2240.479980 2239.689941 2238.149902 2236.229980 2234.189941 2233.020020 2230.919922 2229.919922 2226.969971 2225.899902 2225.479980 2224.879883 2224.020020 2222.989990 2221.550049 2221.330078 2221.629883 2222.040039 2222.520020 2221.469971 2219.989990 2218.530029 2216.310059 2213.870117 2210.760010 2209.560059 2208.219971 2206.570068 2206.600098 2207.090088 2207.129883 2207.169922 2209.199951 2210.149902 2210.290039 2210.250000 2209.320068 2207.419922 2205.030029 2204.229980 2204.120117 2203.330078 2202.659912 2201.840088 2201.189941 2201.550049 2202.560059 2203.959961 2205.389893 2207.229980 2208.959961 2210.540039 2210.080078 2212.330078 2215.649902 2219.479980 2220.459961 2220.820068 2222.560059 2223.820068 2220.189941 2219.010010 2221.719971 2223.489990 2222.419922 2224.909912 2226.770020 2229.050049 2231.320068 2232.219971 2230.959961 2232.790039 2239.209961 2243.669922 -9999.0 -9999.0 -9999.0 -9999.0 -9999.0 -9999.0 -9999.0 -9999.0 -9999.0 -9999.0 -9999.0 -9999.0 -9999.0
-9999.0 -9999.0 -9999.0 -9999.0 -9999.0 -9999.0 -9999.0 -9999.0 -9999.0 -9999.0 2312.409912 2311.570068 2310.689941 2308.639893 2306.939941 2306.860107 2304.419922 2301.280029 2298.580078 2296.570068 2294.419922 2292.510010 2290.229980 2288.399902 2286.590088 2285.199951 2282.979980 2281.149902 2278.770020 2276.719971 2274.330078 2272.580078 2270.620117 2268.530029 2266.280029 2264.439941 2263.120117 2261.790039 2260.040039 2258.429932 2256.879883 2255.510010 2254.350098 2252.689941 2250.989990 2249.290039 2248.750000 2248.600098 2247.739990 2247.120117 2247.340088 2245.699951 2242.959961 2241.540039 2241.310059 2240.949951 2240.419922 2240.060059 2239.600098 2238.760010 2238.510010 2238.350098 2237.250000 2235.729980 2234.149902 2232.020020 2229.510010 2227.439941 2226.979980 2226.820068 2226.280029 2226.270020 2226.340088 2225.580078 2224.320068 2223.600098 2223.850098 2223.689941 2224.600098 2225.709961 2225.229980 2224.280029 2221.739990 2218.919922 2216.189941 2214.320068 2212.560059 2210.709961 2208.469971 2205.989990 2205.010010 2204.909912 2205.449951 2205.929932 2207.120117 2207.219971 2207.020020 2206.919922 2205.820068 2204.510010 2203.479980 2203.179932 2202.760010 2202.370117 2201.929932 2200.750000 2199.919922 2199.969971 2200.689941 2201.979980 2203.590088 2205.010010 2206.030029 2206.530029 2209.750000 2213.760010 2216.229980 2215.570068 2216.080078 2218.689941 2219.350098 2217.870117 2214.719971 2216.659912 2218.530029 2217.570068 2219.290039 2221.330078 2223.090088 2225.209961 2228.229980 2228.239990 2233.080078 2238.209961 -9999.0 -9999.0 -9999.0 -9999.0 -9999.0 -9999.0 -9999.0 -9999.0 -9999.0 -9999.0 -9999.0 -9999.0 -9999.0 -9999.0
-9999.0 -9999.0 -9999.0 -9999.0 -9999.0 -9999.0 -9999.0 -9999.0 -9999.0 -9999.0 -9999.0 2307.639893 2307.149902 2305.580078 2303.260010 2301.729980 2300.139893 2298.209961 2295.989990 2294.060059 2292.139893 2290.350098 2288.409912 2286.820068 2285.080078 2283.389893 2281.729980 2279.639893 2277.989990 2276.129883 2273.870117 2271.750000 2270.399902 2268.040039 2266.540039 2264.860107 2263.439941 2262.100098 2260.159912 2258.729980 2257.419922 2256.060059 2254.620117 2253.260010 2251.659912 2250.590088 2248.530029 2246.929932 2246.080078 2245.429932 2244.969971 2243.939941 2242.699951 2241.850098 2240.449951 2240.159912 2239.310059 2238.239990 2236.629883 2235.939941 2235.419922 2234.659912 2234.250000 2232.540039 2230.979980 2229.540039 2228.479980 2228.449951 2229.580078 2229.360107 2229.350098 2229.610107 2229.909912 2229.360107 2229.419922 2228.340088 2227.469971 2226.459961 2227.229980 2228.290039 2228.669922 2227.870117 2225.449951 2222.780029 2219.070068 2215.919922 2213.479980 2211.590088 2209.449951 2206.610107 2204.070068 2203.050049 2203.820068 2204.760010 2204.949951 2204.790039 2204.679932 2204.590088 2203.649902 2203.370117 2202.679932 2202.270020 2202.010010 2202.030029 2202.620117 2201.610107 2199.780029 2198.739990 2198.360107 2197.780029 2198.979980 2200.399902 2200.899902 2203.770020 2207.909912 2209.889893 2210.699951 2210.409912 2212.020020 2214.520020 2214.270020 2214.479980 2210.590088 2211.979980 2213.699951 2213.699951 2215.770020 2218.149902 2219.800049 2223.129883 2224.010010 2226.780029 2231.699951 2236.179932 -9999.0 -9999.0 -9999.0 -9999.0 -9999.0 -9999.0 -9999.0 -9999.0 -9999.0 -9999.0 -9999.0 -9999.0 -9999.0 -9999.0
-9999.0 -9999.0 -9999.0 -9999.0 -9999.0 -9999.0 -9999.0 -9999.0 -9999.0 -9999.0 -9999.0 2304.489990 2303.260010 2302.570068 2301.090088 2299.189941 2297.159912 2294.870117 2292.840088 2291.409912 2289.600098 2287.949951 2286.550049 2284.889893 2283.040039 2281.649902 2280.159912 2278.560059 2276.760010 2275.060059 2273.419922 2271.389893 2269.580078 2267.860107 2266.250000 2264.709961 2262.979980 2261.409912 2260.060059 2258.560059 2257.090088 2255.689941 2254.379883 2253.340088 2252.060059 2250.760010 2249.080078 2246.669922 2245.110107 2244.810059 2244.370117 2244.010010 2242.500000 2241.580078 2240.209961 2239.419922 2238.419922 2237.229980 2235.850098 2234.929932 2234.110107 2233.550049 2232.080078 2231.209961 2231.699951 2231.570068 2230.949951 2230.979980 2231.969971 2232.300049 2232.149902 2232.459961 2233.530029 2233.780029 2233.320068 2232.060059 2230.770020 2230.370117 2230.709961 2231.590088 2232.399902 2231.729980 2230.010010 2227.370117 2222.840088 2218.080078 2214.919922 2212.290039 2210.070068 2207.709961 2204.760010 2202.639893 2201.750000 2202.399902 2203.000000 2203.679932 2203.100098 2202.469971 2202.389893 2201.860107 2201.340088 2200.739990 2200.459961 2201.949951 2203.139893 2202.209961 2200.520020 2198.929932 2197.639893 2196.159912 2194.199951 2194.280029 2196.500000 2200.649902 2203.739990 2204.979980 2205.330078 2206.300049 2208.360107 2208.959961 2208.389893 2208.649902 2206.860107 2208.270020 2208.899902 2209.750000 2212.919922 2215.159912 2217.739990 2218.810059 2222.169922 2225.540039 2229.610107 2233.760010 -9999.0 -9999.0 -9999.0 -9999.0 -9999.0 -9999.0 -9999.0 -9999.0 -9999.0 -9999.0 -9999.0 -9999.0 -9999.0 -9999.0
-9999.0 -9999.0 -9999.0 -9999.0 -9999.0 -9999.0 -9999.0 -9999.0 -9999.0 -9999.0 -9999.0 -9999.0 2300.399902 2299.389893 2298.449951 2296.989990 2295.189941 2292.989990 2291.040039 2289.639893 2287.820068 2286.090088 2284.489990 2283.189941 2281.649902 2280.229980 2278.570068 2277.199951 2275.489990 2273.070068 2272.090088 2270.489990 2268.590088 2267.409912 2265.959961 2264.350098 2263.000000 2261.530029 2259.679932 2258.500000 2256.969971 2255.280029 2254.030029 2252.669922 2251.530029 2250.310059 2249.060059 2247.189941 2245.320068 2244.550049 2243.709961 2242.790039 2241.939941 2240.669922 2240.149902 2239.159912 2237.870117 2236.500000 2235.870117 2235.080078 2233.860107 2233.750000 2232.659912 2232.699951 2232.469971 2232.479980 2232.649902 2232.800049 2233.030029 2233.570068 2233.639893 2233.820068 2235.209961 2236.070068 2234.729980 2233.850098 2233.260010 2233.300049 2233.760010 2233.629883 2233.459961 2233.399902 2232.489990 2230.290039 2226.489990 2221.429932 2217.139893 2213.780029 2211.219971 2208.889893 2205.899902 2202.959961 2201.080078 2199.689941 2200.449951 2201.590088 2202.120117 2202.260010 2202.050049 2201.239990 2200.469971 2199.459961 2199.600098 2201.580078 2202.540039 2201.439941 2199.850098 2198.229980 2197.010010 2195.790039 2194.340088 2191.550049 2193.510010 2197.379883 2199.899902 2200.830078 2200.959961 2203.350098 2204.929932 2204.570068 2203.489990 2203.580078 2202.899902 2205.270020 2204.929932 2205.439941 2206.909912 2209.560059 2215.250000 2219.090088 2221.520020 2224.760010 2229.020020 -9999.0 -9999.0 -9999.0 -9999.0 -9999.0 -9999.0 -9999.0 -9999.0 -9999.0 -9999.0 -9999.0 -9999.0 -9999.0 -9999.0 -9999.0
-9999.0 -9999.0 -9999.0 -9999.0 -9999.0 -9999.0 -9999.0 -9999.0 -9999.0 -9999.0 -9999.0 -9999.0 -9999.0 2297.199951 2296.129883 2294.929932 2293.419922 2291.550049 2289.669922 2287.629883 2286.149902 2284.620117 2283.090088 2281.419922 2280.000000 2278.649902 2277.169922 2275.860107 2274.139893 2272.080078 2270.879883 2269.330078 2267.810059 2266.500000 2265.439941 2263.979980 2262.590088 2260.989990 2259.790039 2258.020020 2257.000000 2255.379883 2253.560059 2252.179932 2250.929932 2250.110107 2248.879883 2247.770020 2245.510010 2244.290039 2243.520020 2242.899902 2241.250000 2240.070068 2239.139893 2238.860107 2237.800049 2236.290039 2235.669922 2235.060059 2235.790039 2236.159912 2236.489990 2236.419922 2235.389893 2235.810059 2237.040039 2236.699951 2236.790039 2235.770020 2234.949951 2234.709961 2234.620117 2234.760010 2234.360107 2233.830078 2233.540039 2234.580078 2235.500000 2236.030029 2235.969971 2234.620117 2233.050049 2231.510010 2228.729980 2223.370117 2218.510010 2215.520020 2212.669922 2210.149902 2206.959961 2203.000000 2201.939941 2200.800049 2199.419922 2199.120117 2200.320068 2201.699951 2201.760010 2200.649902 2200.060059 2197.919922 2198.500000 2201.100098 2201.409912 2200.250000 2197.820068 2196.270020 2195.330078 2194.350098 2192.989990 2188.449951 2191.370117 2194.929932 2196.729980 2197.189941 2198.989990 2201.590088 2201.709961 2201.209961 2198.909912 2198.889893 2199.320068 2201.550049 2201.939941 2203.620117 2207.100098 2212.229980 2216.439941 2219.080078 2220.780029 2225.149902 2228.409912 -9999.0 -9999.0 -9999.0 -9999.0 -9999.0 -9999.0 -9999.0 -9999.0 -9999.0 -9999.0 -9999.0 -9999.0 -9999.0 -9999.0 -9999.0
-9999.0 -9999.0 -9999.0 -9999.0 -9999.0 -9999.0 -9999.0 -9999.0 -9999.0 -9999.0 -9999.0 -9999.0 -9999.0 2295.439941 2294.379883 2293.120117 2291.840088 2290.379883 2288.610107 2286.300049 2284.310059 2282.919922 2281.250000 2279.939941 2278.590088 2277.320068 2275.979980 2274.570068 2272.780029 2271.290039 2270.360107 2268.889893 2267.729980 2265.750000 2264.179932 2263.040039 2261.669922 2260.409912 2258.760010 2257.530029 2256.139893 2254.760010 2253.250000 2251.860107 2250.550049 2249.679932 2248.729980 2247.219971 2245.500000 2244.189941 2243.530029 2242.860107 2242.129883 2241.290039 2239.260010 2237.879883 2236.649902 2236.649902 2236.379883 2237.489990 2241.310059 2243.489990 2242.800049 2243.219971 2241.189941 2241.699951 2243.149902 2243.530029 2242.590088 2241.070068 2239.790039 2238.149902 2236.770020 2235.760010 2234.810059 2234.270020 2233.459961 2232.889893 2233.629883 2235.699951 2236.870117 2236.030029 2234.060059 2230.840088 2227.889893 2224.010010 2219.350098 2215.419922 2211.909912 2208.070068 2205.350098 2202.050049 2201.570068 2201.169922 2199.969971 2199.409912 2198.510010 2200.699951 2200.520020 2199.409912 2198.219971 2194.810059 2194.159912 2198.080078 2199.419922 2199.010010 2196.330078 2193.770020 2192.479980 2192.239990 2190.469971 2186.179932 2190.050049 2191.659912 2193.820068 2194.530029 2198.110107 2199.179932 2200.419922 2198.929932 2196.820068 2196.100098 2195.949951 2197.399902 2200.169922 2201.909912 2208.629883 2212.620117 2215.229980 2217.649902 2219.540039 2223.379883 2226.209961 -9999.0 -9999.0 -9999.0 -9999.0 -9999.0 -9999.0 -9999.0 -9999.0 -9999.0 -9999.0 -9999.0 -9999.0 -9999.0 -9999.0 -9999.0
-9999.0 -9999.0 -9999.0 -9999.0 -9999.0 -9999.0 -9999.0 -9999.0 -9999.0 -9999.0 -9999.0 -9999.0 -9999.0 -9999.0 2292.850098 2292.090088 2291.169922 2289.320068 2287.689941 2285.610107 2283.290039 2281.739990 2280.080078 2278.510010 2277.229980 2275.899902 2274.899902 2273.550049 2271.770020 2270.570068 2271.250000 2272.110107 2269.139893 2264.620117 2263.129883 2261.959961 2260.739990 2259.449951 2258.310059 2256.850098 2255.689941 2254.370117 2253.000000 2252.129883 2250.750000 2249.489990 2247.879883 2246.040039 2245.110107 2244.389893 2243.629883 2242.860107 2242.050049 2241.280029 2239.629883 2238.379883 2237.000000 2237.379883 2238.260010 2241.250000 2246.590088 2250.959961 2251.760010 2251.689941 2249.570068 2249.679932 2252.600098 2252.909912 2250.860107 2249.080078 2247.290039 2245.209961 2241.949951 2240.699951 2239.560059 2237.689941 2235.310059 2232.780029 2231.189941 2231.110107 2233.040039 2233.149902 2230.879883 2228.270020 2225.459961 2221.379883 2218.469971 2213.560059 2209.030029 2206.179932 2204.340088 2202.719971 2201.879883 2201.389893 2200.689941 2200.159912 2195.860107 2197.770020 2198.370117 2197.780029 2196.989990 2195.469971 2191.070068 2189.570068 2191.629883 2194.780029 2194.969971 2192.520020 2190.179932 2188.379883 2187.239990 2181.679932 2186.520020 2189.510010 2190.629883 2192.959961 2195.770020 2197.020020 2198.310059 2195.969971 2194.629883 2193.260010 2194.070068 2195.850098 2198.790039 2203.020020 2206.909912 2210.139893 2213.469971 2215.479980 2218.159912 2221.919922 2223.530029 -9999.0 -9999.0 -9999.0 -9999.0 -9999.0 -9999.0 -9999.0 -9999.0 -9999.0 -9999.0 -9999.0 -9999.0 -9999.0 -9999.0 -9999.0
-9999.0 -9999.0 -9999.0 -9999.0 -9999.0 -9999.0 -9999.0 -9999.0 -9999.0 -9999.0 -9999.0 -9999.0 -9999.0 -9999.0 -9999.0 2290.989990 2290.719971 2289.959961 2288.080078 2286.159912 2285.209961 2283.750000 2281.500000 2278.300049 2276.639893 2275.590088 2274.510010 2273.479980 2271.939941 2272.459961 2274.320068 2274.860107 2270.939941 2266.229980 2262.729980 2261.350098 2259.969971 2258.949951 2257.719971 2256.760010 2255.419922 2254.100098 2252.949951 2251.850098 2251.000000 2249.979980 2248.389893 2247.010010 2245.590088 2244.360107 2243.760010 2243.000000 2241.780029 2240.909912 2239.500000 2238.120117 2238.449951 2238.850098 2241.330078 2246.370117 2252.580078 2258.479980 2261.100098 2260.929932 2260.469971 2257.899902 2259.919922 2260.330078 2258.340088 2255.489990 2253.409912 2249.229980 2245.350098 2244.010010 2243.919922 2242.449951 2240.649902 2236.570068 2231.870117 2229.699951 2228.389893 2227.179932 2224.919922 2222.659912 2220.709961 2217.250000 2214.310059 2210.590088 2207.350098 2204.889893 2203.850098 2203.199951 2202.590088 2202.290039 2202.459961 2201.489990 2199.939941 2194.290039 2193.129883 2194.219971 2190.679932 2188.709961 2187.669922 2185.739990 2185.479980 2187.850098 2189.070068 2188.399902 2187.270020 2185.379883 2183.810059 2180.340088 2181.949951 2184.899902 2188.100098 2191.310059 2192.760010 2194.459961 2195.879883 2192.360107 2190.590088 2191.399902 2193.189941 2196.820068 2200.469971 2203.409912 2205.699951 2208.679932 2210.169922 2212.510010 2215.520020 2219.540039 2221.379883 -9999.0 -9999.0 -9999.0 -9999.0 -9999.0 -9999.0 -9999.0 -9999.0 -9999.0 -9999.0 -9999.0 -9999.0 -9999.0 -9999.0 -9999.0
-9999.0 -9999.0 -9999.0 -9999.0 -9999.0 -9999.0 -9999.0 -9999.0 -9999.0 -9999.0 -9999.0 -9999.0 -9999.0 -9999.0 -9999.0 -9999.0 -9999.0 2289.580078 2288.409912 2285.989990 2285.100098 2284.330078 2282.070068 2279.340088 2277.409912 2276.600098 2275.020020 2274.110107 2274.360107 2275.949951 2277.340088 2277.149902 2274.729980 2269.250000 2263.310059 2260.860107 2259.510010 2258.719971 2257.879883 2256.570068 2255.560059 2254.250000 2252.879883 2251.709961 2250.590088 2249.939941 2248.979980 2246.510010 2245.679932 2244.500000 2243.570068 2242.719971 2241.770020 2239.939941 2239.330078 2239.590088 2241.340088 2242.000000 2245.500000 2250.860107 2256.560059 2263.870117 2266.550049 2267.530029 2266.040039 2264.639893 2266.030029 2265.919922 2263.959961 2261.320068 2256.679932 2252.110107 2247.520020 2245.850098 2245.629883 2245.110107 2242.629883 2238.100098 2233.729980 2230.929932 2229.570068 2226.820068 2223.530029 2220.300049 2217.610107 2214.649902 2211.469971 2209.409912 2207.659912 2205.629883 2204.149902 2203.439941 2203.209961 2203.679932 2203.699951 2202.679932 2200.889893 2197.929932 2194.149902 2192.209961 2192.129883 2191.030029 2190.179932 2188.709961 2183.870117 2182.610107 2183.570068 2183.280029 2183.639893 2183.350098 2181.909912 2179.100098 2178.770020 2183.199951 2186.600098 2189.580078 2189.459961 2191.820068 2192.729980 2188.889893 2189.260010 2191.320068 2195.550049 2199.139893 2202.080078 2202.570068 2204.790039 2206.159912 2207.229980 2209.020020 2212.550049 2216.909912 2218.969971 -9999.0 -9999.0 -9999.0 -9999.0 -9999.0 -9999.0 -9999.0 -9999.0 -9999.0 -9999.0 -9999.0 -9999.0 -9999.0 -9999.0 -9999.0
-9999.0 -9999.0 -9999.0 -9999.0 -9999.0 -9999.0 -9999.0 -9999.0 -9999.0 -9999.0 -9999.0 -9999.0 -9999.0 -9999.0 -9999.0 -9999.0 -9999.0 -9999.0 2288.560059 2287.870117 2286.419922 2284.959961 2282.790039 2281.280029 2279.889893 2278.350098 2277.510010 2276.610107 2277.889893 2279.340088 2280.179932 2279.949951 2278.530029 2272.719971 2265.629883 2260.780029 2258.979980 2257.919922 2257.229980 2256.070068 2254.979980 2253.889893 2252.750000 2251.840088 2250.770020 2249.510010 2247.600098 2246.260010 2245.260010 2244.760010 2243.629883 2243.100098 2241.979980 2241.270020 2241.379883 2243.370117 2244.469971 2246.229980 2250.090088 2255.449951 2260.590088 2266.899902 2270.889893 2274.030029 2273.350098 2271.350098 2269.669922 2269.580078 2267.949951 2264.100098 2259.800049 2254.090088 2250.409912 2248.000000 2245.989990 2244.090088 2241.229980 2237.649902 2234.770020 2232.800049 2232.000000 2229.620117 2225.260010 2221.300049 2217.320068 2213.699951 2211.580078 2209.429932 2207.659912 2206.479980 2205.100098 2204.310059 2203.979980 2204.080078 2204.409912 2203.479980 2200.929932 2198.949951 2197.610107 2196.479980 2195.469971 2194.560059 2193.169922 2191.469971 2189.040039 2184.669922 2180.679932 2180.229980 2180.919922 2181.409912 2181.169922 2179.159912 2177.020020 2177.179932 2180.469971 2183.510010 2185.010010 2186.929932 2185.959961 2184.820068 2188.760010 2194.340088 2198.179932 2199.590088 2200.439941 2201.389893 2202.399902 2203.560059 2204.149902 2205.709961 2210.320068 2214.750000 -9999.0 -9999.0 -9999.0 -9999.0 -9999.0 -9999.0 -9999.0 -9999.0 -9999.0 -9999.0 -9999.0 -9999.0 -9999.0 -9999.0 -9999.0 -9999.0
-9999.0 -9999.0 -9999.0 -9999.0 -9999.0 -9999.0 -9999.0 -9999.0 -9999.0 -9999.0 -9999.0 -9999.0 -9999.0 -9999.0 -9999.0 -9999.0 -9999.0 -9999.0 -9999.0 -9999.0 2286.620117 2285.989990 2284.770020 2283.979980 2282.729980 2280.639893 2280.870117 2280.989990 2281.159912 2282.090088 2282.510010 2282.239990 2280.729980 2273.659912 2266.360107 2260.699951 2258.219971 2256.899902 2256.520020 2255.489990 2254.530029 2253.409912 2252.080078 2251.260010 2250.129883 2249.939941 2247.260010 2246.090088 2245.159912 2244.429932 2243.929932 2243.149902 2242.300049 2241.469971 2244.010010 2246.379883 2247.439941 2249.879883 2253.939941 2260.810059 2264.709961 2270.080078 2274.830078 2278.120117 2277.080078 2276.010010 2274.280029 2273.139893 2270.860107 2266.500000 2262.379883 2258.550049 2254.239990 2251.439941 2248.540039 2245.689941 2242.870117 2239.770020 2236.840088 2235.270020 2233.399902 2230.439941 2227.060059 2223.209961 2219.350098 2215.320068 2211.729980 2209.510010 2208.610107 2207.189941 2205.959961 2205.590088 2205.429932 2205.060059 2205.060059 2204.820068 2203.330078 2201.929932 2200.949951 2199.939941 2199.360107 2197.889893 2196.229980 2193.979980 2190.500000 2187.850098 2185.330078 2182.550049 2178.949951 2178.350098 2179.699951 2178.830078 2176.669922 2175.310059 2174.800049 2175.389893 2178.709961 2180.780029 2178.360107 2186.010010 2190.959961 2194.790039 2195.770020 2196.840088 2197.669922 2199.199951 2200.110107 2200.669922 2202.219971 2204.860107 2208.199951 2212.209961 2213.600098 -9999.0 -9999.0 -9999.0 -9999.0 -9999.0 -9999.0 -9999.0 -9999.0 -9999.0 -9999.0 -9999.0 -9999.0 -9999.0 -9999.0 -9999.0
-9999.0 -9999.0 -9999.0 -9999.0 -9999.0 -9999.0 -9999.0 -9999.0 -9999.0 -9999.0 -9999.0 -9999.0 -9999.0 -9999.0 -9999.0 -9999.0 -9999.0 -9999.0 -9999.0 -9999.0 -9999.0 -9999.0 2286.209961 2285.679932 2284.080078 2283.219971 2283.530029 2283.830078 2284.679932 2285.219971 2285.389893 2284.750000 2279.969971 2272.729980 2266.209961 2260.060059 2256.939941 2256.320068 2255.219971 2254.610107 2253.699951 2252.679932 2251.790039 2250.510010 2249.620117 2248.949951 2247.790039 2245.770020 2245.159912 2244.719971 2244.270020 2243.090088 2242.639893 2242.310059 2244.780029 2247.330078 2249.709961 2253.120117 2257.949951 2264.439941 2268.639893 2273.020020 2277.429932 2280.270020 2280.439941 2278.510010 2276.709961 2275.850098 2273.699951 2269.929932 2266.120117 2262.459961 2258.270020 2254.229980 2249.520020 2245.000000 2241.469971 2238.790039 2236.610107 2235.260010 2233.959961 2231.449951 2228.550049 2224.989990 2221.290039 2217.340088 2213.739990 2210.449951 2208.770020 2208.500000 2208.040039 2208.030029 2207.969971 2207.729980 2207.270020 2206.899902 2205.800049 2204.320068 2203.139893 2201.949951 2201.209961 2199.979980 2197.719971 2195.330078 2193.179932 2190.620117 2187.689941 2185.209961 2182.219971 2179.129883 2177.100098 2176.290039 2175.590088 2174.830078 2174.260010 2173.739990 2174.449951 2173.860107 2174.189941 2181.610107 2186.429932 2190.290039 2193.239990 2194.260010 2194.879883 2196.260010 2197.620117 2197.270020 2199.570068 2202.600098 2206.199951 2209.149902 2210.719971 -9999.0 -9999.0 -9999.0 -9999.0 -9999.0 -9999.0 -9999.0 -9999.0 -9999.0 -9999.0 -9999.0 -9999.0 -9999.0 -9999.0 -9999.0
-9999.0 -9999.0 -9999.0 -9999.0 -9999.0 -9999.0 -9999.0 -9999.0 -9999.0 -9999.0 -9999.0 -9999.0 -9999.0 -9999.0 -9999.0 -9999.0 -9999.0 -9999.0 -9999.0 -9999.0 -9999.0 -9999.0 -9999.0 2286.060059 2285.689941 2285.419922 2285.739990 2286.560059 2287.469971 2287.979980 2287.479980 2285.610107 2279.199951 2272.040039 2265.419922 2259.389893 2255.979980 2255.659912 2254.800049 2253.399902 2253.189941 2252.239990 2251.129883 2250.250000 2249.070068 2247.560059 2246.830078 2245.969971 2245.270020 2244.639893 2244.090088 2243.500000 2242.459961 2243.439941 2245.629883 2248.429932 2251.409912 2255.090088 2260.550049 2267.580078 2272.520020 2275.830078 2279.709961 2281.389893 2281.969971 2281.100098 2278.919922 2277.709961 2276.030029 2273.060059 2269.459961 2264.830078 2259.699951 2254.429932 2248.860107 2243.060059 2239.459961 2238.229980 2237.409912 2236.209961 2233.979980 2231.919922 2229.379883 2226.239990 2222.560059 2219.169922 2215.379883 2212.189941 2210.530029 2210.610107 2211.090088 2211.250000 2210.929932 2210.219971 2209.399902 2208.479980 2207.070068 2205.760010 2204.479980 2203.010010 2201.689941 2200.570068 2198.620117 2196.510010 2195.659912 2193.350098 2190.899902 2186.989990 2183.479980 2181.219971 2178.939941 2175.620117 2175.409912 2174.540039 2173.659912 2172.879883 2173.189941 2172.689941 2172.760010 2175.590088 2180.080078 2184.770020 2188.830078 2190.760010 2191.669922 2193.370117 2195.229980 2194.830078 2197.949951 2201.540039 2203.520020 2205.729980 2207.479980 -9999.0 -9999.0 -9999.0 -9999.0 -9999.0 -9999.0 -9999.0 -9999.0 -9999.0 -9999.0 -9999.0 -9999.0 -9999.0 -9999.0 -9999.0
-9999.0 -9999.0 -9999.0 -9999.0 -9999.0 -9999.0 -9999.0 -9999.0 -9999.0 -9999.0 -9999.0 -9999.0 -9999.0 -9999.0 -9999.0 -9999.0 -9999.0 -9999.0 -9999.0 -9999.0 -9999.0 -9999.0 -9999.0 -9999.0 -9999.0 2287.659912 2289.080078 2290.590088 2291.649902 2291.270020 2287.489990 2284.820068 2278.389893 2271.530029 2264.760010 2258.750000 2255.300049 2254.729980 2254.129883 2252.679932 2252.419922 2251.679932 2250.649902 2249.780029 2247.760010 2246.989990 2246.540039 2245.840088 2245.139893 2244.800049 2243.929932 2243.080078 2244.030029 2245.389893 2246.620117 2250.080078 2253.360107 2257.090088 2261.750000 2268.719971 2275.100098 2278.330078 2281.610107 2283.360107 2284.080078 2283.860107 2282.489990 2280.159912 2278.729980 2276.290039 2272.010010 2266.010010 2260.570068 2254.610107 2248.620117 2243.590088 2241.010010 2240.199951 2239.820068 2238.250000 2235.080078 2232.399902 2229.889893 2227.550049 2224.060059 2220.739990 2217.689941 2214.260010 2212.929932 2213.760010 2214.709961 2215.340088 2215.320068 2214.409912 2212.800049 2210.850098 2208.639893 2206.389893 2204.580078 2203.250000 2201.649902 2200.030029 2198.449951 2196.659912 2195.750000 2194.179932 2191.810059 2188.659912 2184.590088 2181.280029 2178.790039 2177.169922 2175.239990 2174.100098 2173.760010 2171.139893 2171.020020 2170.629883 2170.860107 2171.209961 2173.030029 2178.330078 2181.719971 2184.270020 2187.310059 2189.909912 2192.229980 2192.739990 2196.239990 2198.800049 2200.739990 2202.629883 2203.620117 -9999.0 -9999.0 -9999.0 -9999.0 -9999.0 -9999.0 -9999.0 -9999.0 -9999.0 -9999.0 -9999.0 -9999.0 -9999.0 -9999.0 -9999.0
-9999.0 -9999.0 -9999.0 -9999.0 -9999.0 -9999.0 -9999.0 -9999.0 -9999.0 -9999.0 -9999.0 -9999.0 -9999.0 -9999.0 -9999.0 -9999.0 -9999.0 -9999.0 -9999.0 -9999.0 -9999.0 -9999.0 -9999.0 -9999.0 -9999.0 -9999.0 -9999.0 2292.810059 2293.330078 2292.000000 2288.590088 2282.629883 2277.919922 2272.020020 2265.550049 2259.969971 2255.040039 2253.840088 2253.280029 2252.379883 2251.080078 2250.350098 2250.050049 2249.310059 2247.760010 2246.699951 2246.360107 2245.699951 2245.120117 2244.500000 2244.120117 2244.500000 2245.870117 2247.500000 2250.110107 2252.709961 2256.070068 2260.000000 2263.770020 2269.489990 2275.969971 2280.120117 2283.179932 2286.120117 2286.379883 2285.659912 2284.000000 2282.979980 2281.879883 2278.860107 2274.080078 2267.909912 2261.840088 2255.689941 2249.810059 2244.800049 2242.540039 2242.020020 2241.370117 2239.379883 2235.300049 2231.469971 2229.620117 2227.669922 2225.060059 2222.250000 2219.520020 2216.639893 2215.110107 2215.889893 2217.179932 2218.520020 2218.209961 2217.870117 2216.000000 2213.610107 2211.139893 2208.659912 2205.830078 2202.610107 2200.840088 2199.830078 2197.949951 2195.580078 2193.239990 2191.100098 2190.659912 2188.419922 2184.790039 2180.850098 2178.179932 2176.800049 2176.209961 2176.600098 2177.129883 2176.340088 2175.800049 2174.550049 2170.270020 2167.889893 2169.219971 2170.669922 2173.830078 2177.110107 2180.879883 2186.270020 2187.780029 2190.570068 2193.510010 2195.879883 2197.810059 2199.850098 2200.669922 -9999.0 -9999.0 -9999.0 -9999.0 -9999.0 -9999.0 -9999.0 -9999.0 -9999.0 -9999.0 -9999.0 -9999.0 -9999.0 -9999.0 -9999.0
-9999.0 -9999.0 -9999.0 -9999.0 -9999.0 -9999.0 -9999.0 -9999.0 -9999.0 -9999.0 -9999.0 -9999.0 -9999.0 -9999.0 -9999.0 -9999.0 -9999.0 -9999.0 -9999.0 -9999.0 -9999.0 -9999.0 -9999.0 -9999.0 -9999.0 -9999.0 -9999.0 -9999.0 2292.979980 2289.239990 2285.449951 2283.709961 2280.100098 2274.189941 2267.919922 2262.459961 2257.000000 2253.760010 2252.590088 2251.790039 2251.000000 2249.850098 2249.159912 2248.760010 2247.780029 2246.709961 2246.010010 2245.540039 2245.100098 2244.860107 2246.919922 2249.600098 2249.280029 2250.469971 2253.409912 2255.840088 2259.409912 2262.719971 2265.830078 2269.909912 2275.489990 2280.790039 2283.360107 2286.610107 2287.020020 2286.790039 2285.389893 2285.699951 2284.250000 2280.959961 2275.820068 2269.500000 2262.929932 2256.409912 2250.590088 2246.090088 2244.260010 2242.949951 2241.949951 2240.340088 2235.949951 2232.239990 2231.840088 2229.729980 2227.830078 2225.590088 2222.340088 2219.239990 2217.330078 2217.760010 2218.159912 2219.820068 2220.570068 2219.919922 2218.550049 2216.350098 2213.280029 2211.000000 2207.820068 2205.570068 2203.969971 2202.520020 2200.350098 2196.520020 2192.570068 2188.860107 2186.469971 2184.500000 2182.429932 2180.139893 2178.209961 2176.909912 2176.209961 2175.969971 2176.909912 2176.899902 2177.290039 2176.929932 2174.739990 2168.350098 2166.810059 2167.500000 2168.270020 2171.530029 2176.199951 2179.989990 2183.530029 2187.389893 2190.989990 2192.370117 2195.050049 2196.899902 2198.340088 -9999.0 -9999.0 -9999.0 -9999.0 -9999.0 -9999.0 -9999.0 -9999.0 -9999.0 -9999.0 -9999.0 -9999.0 -9999.0 -9999.0 -9999.0
-9999.0 -9999.0 -9999.0 -9999.0 -9999.0 -9999.0 -9999.0 -9999.0 -9999.0 -9999.0 -9999.0 -9999.0 -9999.0 -9999.0 -9999.0 -9999.0 -9999.0 -9999.0 -9999.0 -9999.0 -9999.0 -9999.0 -9999.0 -9999.0 -9999.0 -9999.0 -9999.0 -9999.0 -9999.0 2289.409912 2286.909912 2286.939941 2282.699951 2277.699951 2271.300049 2265.250000 2259.979980 2255.500000 2252.840088 2251.419922 2250.810059 2249.810059 2248.909912 2248.330078 2247.350098 2246.889893 2245.979980 2245.419922 2245.570068 2246.719971 2249.949951 2253.340088 2253.219971 2254.790039 2257.110107 2259.760010 2262.199951 2265.340088 2268.800049 2272.330078 2277.010010 2281.300049 2284.060059 2285.159912 2286.260010 2286.800049 2286.239990 2286.979980 2285.870117 2281.350098 2276.070068 2269.989990 2263.929932 2257.520020 2251.320068 2247.459961 2245.639893 2244.189941 2243.219971 2240.560059 2236.550049 2234.750000 2233.679932 2232.060059 2230.179932 2227.709961 2224.840088 2221.169922 2219.580078 2219.100098 2219.280029 2220.560059 2221.669922 2222.060059 2221.229980 2218.929932 2216.010010 2212.820068 2209.560059 2207.739990 2206.679932 2205.760010 2203.750000 2200.449951 2195.209961 2191.290039 2187.159912 2184.510010 2182.149902 2180.320068 2178.760010 2177.030029 2175.459961 2175.469971 2175.879883 2176.010010 2176.330078 2176.260010 2175.020020 2172.399902 2169.270020 2167.010010 2165.889893 2167.229980 2170.070068 2172.879883 2177.510010 2182.870117 2188.489990 2190.610107 2192.330078 2194.489990 2196.669922 -9999.0 -9999.0 -9999.0 -9999.0 -9999.0 -9999.0 -9999.0 -9999.0 -9999.0 -9999.0 -9999.0 -9999.0 -9999.0 -9999.0 -9999.0
-9999.0 -9999.0 -9999.0 -9999.0 -9999.0 -9999.0 -9999.0 -9999.0 -9999.0 -9999.0 -9999.0 -9999.0 -9999.0 -9999.0 -9999.0 -9999.0 -9999.0 -9999.0 -9999.0 -9999.0 -9999.0 -9999.0 -9999.0 -9999.0 -9999.0 -9999.0 -9999.0 -9999.0 -9999.0 -9999.0 2290.530029 2290.360107 2287.429932 2282.399902 2276.389893 2269.489990 2263.760010 2259.500000 2256.020020 2253.409912 2251.189941 2250.070068 2249.469971 2248.810059 2247.639893 2246.840088 2246.520020 2247.370117 2248.750000 2250.030029 2252.830078 2256.860107 2257.830078 2259.850098 2262.010010 2264.629883 2266.939941 2270.149902 2274.050049 2277.479980 2280.439941 2283.199951 2284.510010 2285.280029 2285.780029 2285.739990 2286.350098 2287.729980 2285.530029 2280.610107 2275.189941 2269.550049 2264.070068 2258.810059 2252.409912 2248.699951 2247.270020 2246.020020 2244.560059 2241.610107 2238.709961 2236.280029 2234.439941 2232.959961 2230.610107 2228.010010 2224.739990 2221.669922 2219.790039 2219.669922 2220.139893 2221.340088 2222.620117 2224.070068 2223.699951 2221.969971 2218.739990 2215.739990 2212.659912 2210.389893 2208.590088 2207.439941 2205.929932 2203.909912 2200.659912 2196.959961 2191.320068 2186.719971 2183.739990 2180.520020 2178.169922 2176.489990 2174.899902 2173.830078 2174.070068 2174.510010 2174.659912 2174.860107 2174.250000 2173.280029 2173.020020 2170.679932 2165.959961 2164.500000 2165.510010 2166.600098 2169.770020 2175.699951 2183.209961 2187.669922 2190.010010 2191.850098 2193.389893 -9999.0 -9999.0 -9999.0 -9999.0 -9999.0 -9999.0 -9999.0 -9999.0 -9999.0 -9999.0 -9999.0 -9999.0 -9999.0 -9999.0 -9999.0
-9999.0 -9999.0 -9999.0 -9999.0 -9999.0 -9999.0 -9999.0 -9999.0 -9999.0 -9999.0 -9999.0 -9999.0 -9999.0 -9999.0 -9999.0 -9999.0 -9999.0 -9999.0 -9999.0 -9999.0 -9999.0 -9999.0 -9999.0 -9999.0 -9999.0 -9999.0 -9999.0 -9999.0 -9999.0 -9999.0 -9999.0 2293.070068 2290.659912 2287.209961 2280.679932 2273.590088 2267.889893 2263.810059 2259.439941 2256.939941 2254.790039 2252.050049 2249.919922 2249.159912 2249.270020 2249.770020 2250.629883 2252.530029 2254.770020 2254.610107 2256.419922 2260.760010 2264.429932 2266.370117 2268.419922 2270.929932 2273.239990 2276.469971 2280.500000 2284.540039 2286.760010 2288.209961 2287.409912 2285.939941 2285.330078 2285.989990 2286.979980 2288.120117 2284.659912 2279.459961 2273.659912 2268.840088 2263.800049 2259.250000 2253.510010 2250.340088 2249.270020 2247.929932 2246.300049 2242.820068 2239.989990 2237.879883 2236.020020 2232.870117 2229.870117 2226.889893 2223.379883 2221.070068 2219.850098 2219.879883 2220.419922 2221.659912 2223.429932 2224.399902 2224.780029 2224.310059 2221.550049 2218.000000 2214.439941 2211.479980 2209.149902 2208.000000 2207.020020 2205.659912 2203.389893 2200.270020 2196.489990 2190.290039 2185.979980 2181.979980 2178.350098 2175.870117 2173.860107 2172.780029 2172.129883 2172.600098 2172.989990 2173.580078 2173.459961 2173.080078 2172.600098 2171.879883 2168.699951 2163.979980 2162.810059 2162.419922 2164.820068 2170.280029 2178.419922 2182.850098 2185.850098 2187.879883 2189.959961 -9999.0 -9999.0 -9999.0 -9999.0 -9999.0 -9999.0 -9999.0 -9999.0 -9999.0 -9999.0 -9999.0 -9999.0 -9999.0 -9999.0 -9999.0
-9999.0 -9999.0 -9999.0 -9999.0 -9999.0 -9999.0 -9999.0 -9999.0 -9999.0 -9999.0 -9999.0 -9999.0 -9999.0 -9999.0 -9999.0 -9999.0 -9999.0 -9999.0 -9999.0 -9999.0 -9999.0 -9999.0 -9999.0 -9999.0 -9999.0 -9999.0 -9999.0 -9999.0 -9999.0 -9999.0 -9999.0 -9999.0 2292.520020 2288.629883 2282.500000 2276.649902 2271.679932 2267.090088 2263.080078 2260.370117 2257.590088 2254.379883 2252.209961 2253.149902 2254.199951 2254.649902 2255.340088 2258.610107 2260.520020 2259.469971 2260.810059 2265.080078 2270.350098 2272.320068 2274.090088 2277.340088 2278.800049 2282.879883 2288.550049 2292.340088 2292.600098 2292.189941 2291.270020 2288.250000 2286.479980 2286.179932 2288.100098 2288.280029 2284.310059 2279.010010 2273.040039 2267.820068 2263.010010 2258.860107 2254.110107 2252.560059 2251.419922 2250.020020 2247.540039 2243.780029 2241.129883 2239.629883 2236.260010 2233.260010 2229.219971 2226.050049 2222.899902 2221.879883 2220.889893 2220.659912 2220.290039 2221.209961 2223.310059 2224.040039 2225.209961 2225.629883 2222.889893 2218.870117 2214.709961 2211.639893 2209.060059 2207.320068 2206.600098 2205.879883 2204.770020 2201.610107 2197.810059 2192.929932 2188.290039 2183.350098 2179.090088 2176.169922 2174.050049 2171.919922 2171.209961 2171.689941 2171.350098 2171.739990 2172.489990 2172.479980 2172.060059 2172.669922 2172.870117 2171.090088 2168.449951 2163.899902 2161.580078 2166.639893 2172.889893 2177.570068 2182.860107 2185.860107 2186.689941 -9999.0 -9999.0 -9999.0 -9999.0 -9999.0 -9999.0 -9999.0 -9999.0 -9999.0 -9999.0 -9999.0 -9999.0 -9999.0 -9999.0 -9999.0
-9999.0 -9999.0 -9999.0 -9999.0 -9999.0 -9999.0 -9999.0 -9999.0 -9999.0 -9999.0 -9999.0 -9999.0 -9999.0 -9999.0 -9999.0 -9999.0 -9999.0 -9999.0 -9999.0 -9999.0 -9999.0 -9999.0 -9999.0 -9999.0 -9999.0 -9999.0 -9999.0 -9999.0 -9999.0 -9999.0 -9999.0 -9999.0 2294.510010 2290.340088 2284.790039 2279.560059 2274.280029 2269.729980 2265.780029 2262.949951 2259.500000 2256.459961 2255.120117 2256.889893 2258.979980 2259.179932 2260.760010 2264.370117 2265.429932 2264.370117 2265.459961 2269.469971 2275.689941 2277.449951 2279.899902 2282.469971 2284.350098 2291.080078 2297.209961 2297.729980 2296.959961 2295.739990 2294.100098 2290.610107 2287.830078 2287.889893 2288.199951 2286.570068 2282.820068 2278.409912 2272.870117 2267.689941 2263.209961 2259.449951 2255.649902 2254.629883 2252.620117 2250.570068 2248.629883 2244.510010 2242.360107 2242.080078 2237.560059 2233.409912 2228.719971 2226.270020 2224.120117 2223.209961 2222.429932 2221.770020 2221.290039 2221.429932 2222.590088 2223.250000 2224.820068 2224.239990 2221.129883 2216.419922 2213.969971 2211.159912 2209.129883 2207.280029 2206.969971 2206.300049 2205.179932 2202.040039 2198.879883 2194.439941 2190.070068 2185.120117 2180.580078 2176.620117 2173.439941 2171.149902 2170.209961 2170.290039 2170.149902 2170.469971 2171.080078 2171.179932 2171.000000 2171.919922 2172.600098 2172.780029 2171.560059 2164.929932 2161.580078 2165.060059 2169.780029 2175.820068 2180.010010 2183.600098 2185.090088 -9999.0 -9999.0 -9999.0 -9999.0 -9999.0 -9999.0 -9999.0 -9999.0 -9999.0 -9999.0 -9999.0 -9999.0 -9999.0 -9999.0 -9999.0
-9999.0 -9999.0 -9999.0 -9999.0 -9999.0 -9999.0 -9999.0 -9999.0 -9999.0 -9999.0 -9999.0 -9999.0 -9999.0 -9999.0 -9999.0 -9999.0 -9999.0 -9999.0 -9999.0 -9999.0 -9999.0 -9999.0 -9999.0 -9999.0 -9999.0 -9999.0 -9999.0 -9999.0 -9999.0 -9999.0 -9999.0 -9999.0 -9999.0 2292.679932 2288.070068 2282.919922 2277.610107 2273.370117 2269.020020 2265.919922 2261.939941 2259.510010 2259.209961 2262.040039 2264.899902 2265.229980 2267.840088 2271.290039 2271.580078 2271.360107 2270.870117 2274.260010 2280.139893 2283.340088 2286.629883 2290.139893 2294.600098 2300.610107 2303.479980 2303.399902 2302.149902 2299.520020 2296.879883 2293.050049 2288.649902 2287.120117 2285.449951 2283.550049 2281.379883 2278.449951 2273.250000 2268.270020 2264.189941 2260.850098 2257.729980 2255.409912 2253.840088 2252.040039 2249.889893 2247.159912 2245.320068 2243.919922 2240.370117 2233.840088 2230.100098 2227.229980 2224.760010 2224.780029 2223.489990 2222.290039 2222.149902 2221.209961 2221.020020 2220.879883 2221.090088 2220.209961 2216.860107 2215.169922 2214.169922 2211.909912 2209.520020 2207.750000 2207.340088 2206.790039 2205.070068 2201.860107 2198.110107 2194.669922 2191.100098 2187.810059 2182.919922 2177.899902 2174.449951 2171.080078 2169.649902 2168.560059 2168.239990 2168.550049 2169.179932 2169.679932 2169.149902 2169.459961 2170.459961 2170.340088 2168.949951 2166.090088 2161.580078 2162.340088 2168.520020 2173.689941 2177.320068 2180.830078 -9999.0 -9999.0 -9999.0 -9999.0 -9999.0 -9999.0 -9999.0 -9999.0 -9999.0 -9999.0 -9999.0 -9999.0 -9999.0 -9999.0 -9999.0 -9999.0
-9999.0 -9999.0 -9999.0 -9999.0 -9999.0 -9999.0 -9999.0 -9999.0 -9999.0 -9999.0 -9999.0 -9999.0 -9999.0 -9999.0 -9999.0 -9999.0 -9999.0 -9999.0 -9999.0 -9999.0 -9999.0 -9999.0 -9999.0 -9999.0 -9999.0 -9999.0 -9999.0 -9999.0 -9999.0 -9999.0 -9999.0 -9999.0 -9999.0 -9999.0 2289.919922 2284.669922 2279.510010 2275.250000 2271.409912 2267.699951 2263.810059 2262.070068 2262.290039 2264.300049 2267.340088 2268.270020 2271.699951 2275.739990 2276.320068 2276.949951 2275.780029 2278.350098 2283.610107 2288.340088 2292.169922 2297.629883 2304.750000 2307.399902 2308.159912 2307.280029 2305.060059 2302.770020 2300.110107 2295.379883 2289.580078 2287.889893 2286.919922 2284.620117 2282.590088 2280.050049 2275.750000 2271.669922 2266.830078 2262.639893 2260.560059 2257.110107 2255.610107 2253.399902 2251.729980 2249.149902 2246.649902 2245.520020 2242.139893 2235.989990 2230.750000 2227.550049 2224.580078 2222.520020 2221.979980 2222.389893 2222.020020 2220.760010 2219.780029 2218.479980 2218.139893 2217.270020 2215.570068 2214.649902 2213.370117 2211.580078 2209.870117 2208.719971 2207.889893 2206.879883 2205.199951 2201.209961 2197.389893 2193.679932 2190.969971 2187.659912 2184.120117 2178.979980 2174.810059 2171.800049 2169.669922 2167.939941 2166.750000 2166.040039 2166.570068 2167.310059 2167.290039 2167.129883 2167.699951 2167.590088 2166.770020 2163.750000 2161.580078 2161.580078 2165.260010 2171.500000 2174.790039 -9999.0 -9999.0 -9999.0 -9999.0 -9999.0 -9999.0 -9999.0 -9999.0 -9999.0 -9999.0 -9999.0 -9999.0 -9999.0 -9999.0 -9999.0 -9999.0 -9999.0
-9999.0 -9999.0 -9999.0 -9999.0 -9999.0 -9999.0 -9999.0 -9999.0 -9999.0 -9999.0 -9999.0 -9999.0 -9999.0 -9999.0 -9999.0 -9999.0 -9999.0 -9999.0 -9999.0 -9999.0 -9999.0 -9999.0 -9999.0 -9999.0 -9999.0 -9999.0 -9999.0 -9999.0 -9999.0 -9999.0 -9999.0 -9999.0 -9999.0 -9999.0 -9999.0 2285.350098 2280.399902 2276.040039 2272.219971 2268.949951 2266.219971 2264.969971 2265.580078 2266.090088 2268.169922 2270.030029 2274.370117 2278.520020 2279.989990 2279.919922 2279.219971 2281.929932 2287.239990 2293.129883 2298.899902 2307.300049 2311.320068 2311.929932 2312.110107 2311.110107 2308.610107 2306.770020 2303.719971 2299.250000 2294.179932 2291.620117 2289.820068 2287.510010 2285.100098 2282.929932 2279.550049 2275.370117 2270.810059 2266.129883 2263.129883 2259.810059 2257.469971 2256.429932 2254.379883 2251.830078 2248.510010 2245.590088 2243.360107 2239.850098 2233.159912 2228.600098 2225.229980 2222.959961 2222.080078 2221.919922 2221.409912 2220.750000 2220.250000 2218.429932 2218.070068 2216.550049 2214.669922 2213.570068 2211.929932 2210.699951 2210.760010 2209.169922 2207.550049 2206.070068 2204.580078 2200.830078 2195.760010 2192.530029 2189.820068 2187.330078 2184.209961 2179.340088 2175.379883 2172.199951 2169.290039 2167.469971 2165.909912 2165.060059 2164.159912 2164.030029 2164.429932 2165.139893 2165.330078 2165.250000 2164.860107 2162.250000 2160.590088 2163.729980 2165.290039 2167.889893 -9999.0 -9999.0 -9999.0 -9999.0 -9999.0 -9999.0 -9999.0 -9999.0 -9999.0 -9999.0 -9999.0 -9999.0 -9999.0 -9999.0 -9999.0 -9999.0 -9999.0 -9999.0
-9999.0 -9999.0 -9999.0 -9999.0 -9999.0 -9999.0 -9999.0 -9999.0 -9999.0 -9999.0 -9999.0 -9999.0 -9999.0 -9999.0 -9999.0 -9999.0 -9999.0 -9999.0 -9999.0 -9999.0 -9999.0 -9999.0 -9999.0 -9999.0 -9999.0 -9999.0 -9999.0 -9999.0 -9999.0 -9999.0 -9999.0 -9999.0 -9999.0 -9999.0 -9999.0 -9999.0 -9999.0 -9999.0 2272.169922 2269.360107 2267.679932 2267.669922 2268.060059 2268.330078 2268.870117 2271.290039 2275.889893 2281.169922 2283.989990 2282.439941 2281.800049 2284.979980 2290.290039 2296.959961 2304.100098 2313.010010 2315.379883 2316.899902 2316.679932 2315.510010 2313.199951 2310.729980 2307.050049 2302.959961 2298.659912 2295.399902 2292.840088 2290.399902 2287.949951 2285.340088 2282.399902 2279.419922 2274.439941 2269.469971 2265.989990 2262.479980 2259.370117 2258.370117 2256.310059 2253.429932 2249.679932 2246.409912 2243.790039 2241.129883 2236.429932 2231.159912 2226.820068 2224.689941 2222.979980 2222.360107 2221.899902 2221.750000 2220.850098 2219.379883 2217.899902 2216.040039 2214.419922 2213.320068 2211.929932 2211.570068 2211.250000 2208.600098 2206.540039 2204.969971 2203.100098 2200.350098 2194.580078 2191.729980 2189.330078 2187.270020 2184.389893 2179.719971 2176.399902 2172.620117 2168.870117 2166.679932 2165.590088 2164.739990 2163.379883 2161.959961 2161.729980 2162.360107 2162.729980 2162.429932 2163.330078 2161.739990 2158.360107 2163.800049 2164.889893 -9999.0 -9999.0 -9999.0 -9999.0 -9999.0 -9999.0 -9999.0 -9999.0 -9999.0 -9999.0 -9999.0 -9999.0 -9999.0 -9999.0 -9999.0 -9999.0 -9999.0 -9999.0 -9999.0
-9999.0 -9999.0 -9999.0 -9999.0 -9999.0 -9999.0 -9999.0 -9999.0 -9999.0 -9999.0 -9999.0 -9999.0 -9999.0 -9999.0 -9999.0 -9999.0 -9999.0 -9999.0 -9999.0 -9999.0 -9999.0 -9999.0 -9999.0 -9999.0 -9999.0 -9999.0 -9999.0 -9999.0 -9999.0 -9999.0 -9999.0 -9999.0 -9999.0 -9999.0 -9999.0 -9999.0 -9999.0 -9999.0 -9999.0 2269.649902 2268.919922 2269.129883 2269.399902 2269.520020 2270.260010 2272.469971 2277.070068 2283.370117 2285.429932 2283.870117 2283.770020 2287.570068 2293.159912 2299.560059 2310.010010 2316.830078 2319.469971 2321.439941 2320.989990 2319.250000 2317.129883 2314.270020 2310.439941 2306.550049 2302.219971 2298.709961 2296.070068 2293.159912 2290.629883 2288.100098 2285.050049 2282.219971 2277.300049 2272.719971 2269.169922 2265.270020 2261.479980 2259.350098 2257.530029 2254.729980 2251.540039 2247.290039 2244.189941 2241.260010 2238.189941 2233.270020 2228.550049 2225.629883 2223.949951 2223.189941 2223.000000 2221.949951 2221.340088 2220.399902 2218.860107 2216.989990 2215.020020 2213.909912 2213.239990 2212.510010 2210.860107 2208.260010 2205.760010 2204.080078 2202.110107 2198.979980 2194.010010 2191.320068 2188.330078 2186.250000 2184.219971 2180.179932 2176.290039 2173.000000 2169.850098 2166.750000 2165.550049 2164.929932 2163.179932 2160.949951 2159.389893 2159.449951 2159.969971 2159.520020 2160.600098 2159.760010 2155.959961 2161.280029 2164.729980 -9999.0 -9999.0 -9999.0 -9999.0 -9999.0 -9999.0 -9999.0 -9999.0 -9999.0 -9999.0 -9999.0 -9999.0 -9999.0 -9999.0 -9999.0 -9999.0 -9999.0 -9999.0 -9999.0
-9999.0 -9999.0 -9999.0 -9999.0 -9999.0 -9999.0 -9999.0 -9999.0 -9999.0 -9999.0 -9999.0 -9999.0 -9999.0 -9999.0 -9999.0 -9999.0 -9999.0 -9999.0 -9999.0 -9999.0 -9999.0 -9999.0 -9999.0 -9999.0 -9999.0 -9999.0 -9999.0 -9999.0 -9999.0 -9999.0 -9999.0 -9999.0 -9999.0 -9999.0 -9999.0 -9999.0 -9999.0 -9999.0 -9999.0 -9999.0 -9999.0 -9999.0 -9999.0 -9999.0 -9999.0 2273.340088 2276.969971 2281.040039 -9999.0 -9999.0 2285.850098 2290.270020 2296.399902 2303.649902 2314.139893 2319.350098 2323.679932 2325.780029 2326.229980 2323.610107 2321.159912 2318.159912 2314.340088 2310.199951 2305.919922 2302.419922 2299.870117 2296.570068 2293.979980 2291.600098 2288.100098 2284.860107 2280.179932 2275.989990 2272.439941 2269.550049 2264.879883 2261.239990 2258.760010 2256.169922 2253.120117 2249.159912 2244.879883 2241.570068 2238.929932 2233.020020 2229.229980 2227.340088 2225.310059 2223.919922 2223.510010 2222.570068 2222.399902 2221.550049 2220.370117 2218.360107 2216.580078 2215.479980 2214.800049 2213.520020 2211.699951 2209.719971 2206.489990 2202.889893 2199.830078 2196.610107 2192.320068 2190.260010 2187.699951 2184.600098 2182.199951 2179.360107 2176.040039 2173.280029 2170.199951 2167.169922 2165.649902 2163.850098 2162.389893 2160.669922 2158.250000 2155.979980 2155.939941 2156.250000 2156.709961 2156.320068 2153.479980 2157.169922 2163.469971 2164.469971 -9999.0 -9999.0 -9999.0 -9999.0 -9999.0 -9999.0 -9999.0 -9999.0 -9999.0 -9999.0 -9999.0 -9999.0 -9999.0 -9999.0 -9999.0 -9999.0 -9999.0 -9999.0
-9999.0 -9999.0 -9999.0 -9999.0 -9999.0 -9999.0 -9999.0 -9999.0 -9999.0 -9999.0 -9999.0 -9999.0 -9999.0 -9999.0 -9999.0 -9999.0 -9999.0 -9999.0 -9999.0 -9999.0 -9999.0 -9999.0 -9999.0 -9999.0 -9999.0 -9999.0 -9999.0 -9999.0 -9999.0 -9999.0 -9999.0 -9999.0 -9999.0 -9999.0 -9999.0 -9999.0 -9999.0 -9999.0 -9999.0 -9999.0 -9999.0 -9999.0 -9999.0 -9999.0 -9999.0 -9999.0 -9999.0 -9999.0 -9999.0 -9999.0 -9999.0 2293.449951 2299.530029 2308.040039 2315.290039 2321.300049 2326.239990 2330.139893 2330.629883 2328.899902 2325.689941 2322.790039 2318.840088 2314.929932 2310.520020 2306.649902 2304.000000 2301.070068 2298.050049 2294.969971 2291.659912 2287.729980 2283.860107 2279.360107 2275.389893 2272.399902 2269.300049 2264.179932 2261.070068 2256.739990 2254.139893 2249.340088 2245.209961 2241.959961 2237.379883 2232.810059 2229.520020 2227.580078 2226.239990 2224.820068 2224.350098 2223.090088 2222.909912 2222.909912 2222.159912 2220.409912 2218.600098 2217.860107 2217.060059 2215.739990 2214.100098 2211.439941 2207.270020 2203.209961 2198.179932 2193.399902 2189.459961 2187.250000 2185.179932 2182.669922 2180.399902 2178.590088 2176.060059 2173.310059 2170.270020 2167.679932 2165.270020 2163.189941 2162.370117 2160.760010 2157.610107 2154.840088 2153.459961 2152.379883 2151.169922 2152.909912 2152.010010 2149.850098 2158.659912 2161.540039 2162.050049 -9999.0 -9999.0 -9999.0 -9999.0 -9999.0 -9999.0 -9999.0 -9999.0 -9999.0 -9999.0 -9999.0 -9999.0 -9999.0 -9999.0 -9999.0 -9999.0 -9999.0
-9999.0 -9999.0 -9999.0 -9999.0 -9999.0 -9999.0 -9999.0 -9999.0 -9999.0 -9999.0 -9999.0 -9999.0 -9999.0 -9999.0 -9999.0 -9999.0 -9999.0 -9999.0 -9999.0 -9999.0 -9999.0 -9999.0 -9999.0 -9999.0 -9999.0 -9999.0 -9999.0 -9999.0 -9999.0 -9999.0 -9999.0 -9999.0 -9999.0 -9999.0 -9999.0 -9999.0 -9999.0 -9999.0 -9999.0 -9999.0 -9999.0 -9999.0 -9999.0 -9999.0 -9999.0 -9999.0 -9999.0 -9999.0 -9999.0 -9999.0 -9999.0 -9999.0 -9999.0 -9999.0 2315.959961 2321.770020 2327.310059 2331.600098 2333.419922 2333.149902 2330.020020 2326.830078 2323.169922 2319.219971 2315.760010 2311.379883 2308.070068 2305.250000 2302.530029 2299.120117 2295.320068 2291.330078 2287.219971 2282.800049 2277.770020 2274.219971 2270.120117 2265.939941 2262.239990 2258.300049 2256.080078 2250.780029 2245.010010 2241.330078 2237.090088 2234.040039 2230.929932 2227.659912 2226.580078 2225.489990 2224.810059 2223.770020 2224.169922 2224.060059 2223.290039 2222.510010 2220.909912 2219.600098 2218.800049 2216.719971 2215.040039 2212.000000 2207.860107 2202.159912 2196.239990 2190.610107 2187.639893 2185.209961 2182.790039 2179.989990 2178.840088 2178.159912 2175.820068 2173.389893 2170.139893 2167.300049 2164.929932 2162.969971 2161.340088 2160.050049 2157.330078 2153.649902 2151.669922 2150.850098 2149.300049 2149.060059 2147.270020 2143.020020 2150.659912 2153.780029 2158.929932 2160.610107 -9999.0 -9999.0 -9999.0 -9999.0 -9999.0 -9999.0 -9999.0 -9999.0 -9999.0 -9999.0 -9999.0 -9999.0 -9999.0 -9999.0 -9999.0 -9999.0
-9999.0 -9999.0 -9999.0 -9999.0 -9999.0 -9999.0 -9999.0 -9999.0 -9999.0 -9999.0 -9999.0 -9999.0 -9999.0 -9999.0 -9999.0 -9999.0 -9999.0 -9999.0 -9999.0 -9999.0 -9999.0 -9999.0 -9999.0 -9999.0 -9999.0 -9999.0 -9999.0 -9999.0 -9999.0 -9999.0 -9999.0 -9999.0 -9999.0 -9999.0 -9999.0 -9999.0 -9999.0 -9999.0 -9999.0 -9999.0 -9999.0 -9999.0 -9999.0 -9999.0 -9999.0 -9999.0 -9999.0 -9999.0 -9999.0 -9999.0 -9999.0 -9999.0 -9999.0 -9999.0 -9999.0 -9999.0 -9999.0 2331.489990 -9999.0 2334.699951 2333.500000 2330.629883 2327.149902 2323.110107 2319.550049 2315.860107 2312.169922 2309.209961 2306.090088 2302.419922 2298.760010 2294.689941 2290.939941 2285.520020 2280.129883 2276.030029 2271.989990 2267.840088 2263.550049 2259.340088 2257.310059 2252.389893 2245.110107 2240.649902 2237.479980 2234.100098 2232.489990 2229.260010 2227.570068 2226.689941 2226.260010 2225.399902 2225.090088 2224.810059 2225.000000 2224.800049 2223.699951 2221.610107 2220.370117 2218.020020 2215.760010 2212.070068 2206.209961 2199.570068 2193.370117 2189.489990 2186.050049 2182.840088 2180.550049 2178.699951 2177.780029 2177.100098 2175.300049 2172.760010 2169.810059 2167.229980 2164.409912 2162.629883 2161.229980 2159.479980 2157.449951 2152.929932 2149.899902 2149.419922 2146.870117 2145.540039 2139.870117 2133.580078 2138.760010 2148.370117 2152.100098 2155.469971 -9999.0 -9999.0 -9999.0 -9999.0 -9999.0 -9999.0 -9999.0 -9999.0 -9999.0 -9999.0 -9999.0 -9999.0 -9999.0 -9999.0 -9999.0 -9999.0
-9999.0 -9999.0 -9999.0 -9999.0 -9999.0 -9999.0 -9999.0 -9999.0 -9999.0 -9999.0 -9999.0 -9999.0 -9999.0 -9999.0 -9999.0 -9999.0 -9999.0 -9999.0 -9999.0 -9999.0 -9999.0 -9999.0 -9999.0 -9999.0 -9999.0 -9999.0 -9999.0 -9999.0 -9999.0 -9999.0 -9999.0 -9999.0 -9999.0 -9999.0 -9999.0 -9999.0 -9999.0 -9999.0 -9999.0 -9999.0 -9999.0 -9999.0 -9999.0 -9999.0 -9999.0 -9999.0 -9999.0 -9999.0 -9999.0 -9999.0 -9999.0 -9999.0 -9999.0 -9999.0 -9999.0 -9999.0 -9999.0 -9999.0 -9999.0 -9999.0 -9999.0 2333.189941 2330.520020 2327.560059 2323.979980 2320.179932 2316.959961 2314.419922 2310.409912 2306.120117 2301.929932 2298.070068 2294.000000 2288.649902 2283.209961 2278.629883 2273.979980 2269.979980 2264.989990 2259.810059 2256.610107 2252.350098 2245.340088 2240.399902 2237.330078 2234.919922 2232.570068 2231.550049 2229.600098 2227.820068 2226.739990 2226.399902 2226.270020 2225.669922 2226.310059 2226.750000 2225.270020 2222.600098 2221.100098 2218.300049 2215.820068 2211.340088 2203.899902 2197.659912 2191.620117 2187.540039 2184.949951 2181.709961 2179.250000 2177.080078 2176.399902 2175.669922 2174.429932 2171.189941 2168.669922 2166.290039 2163.520020 2161.169922 2160.929932 2158.199951 2155.060059 2152.110107 2148.389893 2143.020020 2138.229980 2136.850098 2132.679932 2125.649902 2129.070068 2138.689941 2144.899902 2149.790039 -9999.0 -9999.0 -9999.0 -9999.0 -9999.0 -9999.0 -9999.0 -9999.0 -9999.0 -9999.0 -9999.0 -9999.0 -9999.0 -9999.0 -9999.0 -9999.0
-9999.0 -9999.0 -9999.0 -9999.0 -9999.0 -9999.0 -9999.0 -9999.0 -9999.0 -9999.0 -9999.0 -9999.0 -9999.0 -9999.0 -9999.0 -9999.0 -9999.0 -9999.0 -9999.0 -9999.0 -9999.0 -9999.0 -9999.0 -9999.0 -9999.0 -9999.0 -9999.0 -9999.0 -9999.0 -9999.0 -9999.0 -9999.0 -9999.0 -9999.0 -9999.0 -9999.0 -9999.0 -9999.0 -9999.0 -9999.0 -9999.0 -9999.0 -9999.0 -9999.0 -9999.0 -9999.0 -9999.0 -9999.0 -9999.0 -9999.0 -9999.0 -9999.0 -9999.0 -9999.0 -9999.0 -9999.0 -9999.0 -9999.0 -9999.0 -9999.0 -9999.0 -9999.0 -9999.0 2328.580078 2326.939941 2324.179932 2322.250000 2319.979980 2316.020020 2310.739990 2305.439941 2300.820068 2296.419922 2290.879883 2285.679932 2281.489990 2277.060059 2272.409912 2267.129883 2260.860107 2255.870117 2251.949951 2245.580078 2239.639893 2236.820068 2234.540039 2232.459961 2231.120117 2229.830078 2228.090088 2227.040039 2226.659912 2226.320068 2225.949951 2225.949951 2224.449951 2222.889893 2220.530029 2218.830078 2215.540039 2210.760010 2206.260010 2199.189941 2193.120117 2188.879883 2185.780029 2183.370117 2180.080078 2175.979980 2173.770020 2171.459961 2170.239990 2168.030029 2166.129883 2164.020020 2161.689941 2159.110107 2157.629883 2156.000000 2155.399902 2152.889893 2150.649902 2146.209961 2143.159912 2134.449951 2127.330078 2122.750000 2118.360107 2119.919922 2130.590088 2140.030029 2145.860107 -9999.0 -9999.0 -9999.0 -9999.0 -9999.0 -9999.0 -9999.0 -9999.0 -9999.0 -9999.0 -9999.0 -9999.0 -9999.0 -9999.0 -9999.0 -9999.0
-9999.0 -9999.0 -9999.0 -9999.0 -9999.0 -9999.0 -9999.0 -9999.0 -9999.0 -9999.0 -9999.0 -9999.0 -9999.0 -9999.0 -9999.0 -9999.0 -9999.0 -9999.0 -9999.0 -9999.0 -9999.0 -9999.0 -9999.0 -9999.0 -9999.0 -9999.0 -9999.0 -9999.0 -9999.0 -9999.0 -9999.0 -9999.0 -9999.0 -9999.0 -9999.0 -9999.0 -9999.0 -9999.0 -9999.0 -9999.0 -9999.0 -9999.0 -9999.0 -9999.0 -9999.0 -9999.0 -9999.0 -9999.0 -9999.0 -9999.0 -9999.0 -9999.0 -9999.0 -9999.0 -9999.0 -9999.0 -9999.0 -9999.0 -9999.0 -9999.0 -9999.0 -9999.0 -9999.0 -9999.0 -9999.0 2325.260010 2324.580078 2322.510010 2319.479980 2314.520020 2308.479980 2303.290039 2298.209961 2293.149902 2287.860107 2283.620117 2279.709961 2275.070068 2269.100098 2262.239990 2256.429932 2251.139893 2245.939941 2240.199951 2236.070068 2233.949951 2232.419922 2230.870117 2229.280029 2227.679932 2225.939941 2224.169922 2222.679932 2221.969971 2219.379883 2216.709961 2214.709961 2212.360107 2209.780029 2207.120117 2203.780029 2198.149902 2194.270020 2189.350098 2183.060059 2178.979980 2176.379883 2174.860107 2171.310059 2167.139893 2165.040039 2162.219971 2159.750000 2157.850098 2157.350098 2154.709961 2152.649902 2152.419922 2152.209961 2151.919922 2150.020020 2148.179932 2144.370117 2141.239990 2132.520020 2123.040039 2115.459961 2109.389893 2111.379883 2121.899902 2134.290039 2140.070068 -9999.0 -9999.0 -9999.0 -9999.0 -9999.0 -9999.0 -9999.0 -9999.0 -9999.0 -9999.0 -9999.0 -9999.0 -9999.0 -9999.0 -9999.0 -9999.0
-9999.0 -9999.0 -9999.0 -9999.0 -9999.0 -9999.0 -9999.0 -9999.0 -9999.0 -9999.0 -9999.0 -9999.0 -9999.0 -9999.0 -9999.0 -9999.0 -9999.0 -9999.0 -9999.0 -9999.0 -9999.0 -9999.0 -9999.0 -9999.0 -9999.0 -9999.0 -9999.0 -9999.0 -9999.0 -9999.0 -9999.0 -9999.0 -9999.0 -9999.0 -9999.0 -9999.0 -9999.0 -9999.0 -9999.0 -9999.0 -9999.0 -9999.0 -9999.0 -9999.0 -9999.0 -9999.0 -9999.0 -9999.0 -9999.0 -9999.0 -9999.0 -9999.0 -9999.0 -9999.0 -9999.0 -9999.0 -9999.0 -9999.0 -9999.0 -9999.0 -9999.0 -9999.0 -9999.0 -9999.0 -9999.0 -9999.0 -9999.0 2322.479980 2319.600098 2314.840088 2309.110107 2303.969971 2298.750000 2293.770020 2289.669922 2284.989990 2281.050049 2276.479980 2270.090088 2263.280029 2256.810059 2251.540039 2245.250000 2239.709961 2235.550049 2233.120117 2232.629883 2230.510010 2228.570068 2226.860107 2224.239990 2220.919922 2217.070068 2215.409912 2213.100098 2210.270020 2207.399902 2204.399902 2202.649902 2199.060059 2195.370117 2190.820068 2185.510010 2181.189941 2175.699951 2170.959961 2167.679932 2166.719971 2163.689941 2159.560059 2157.899902 2155.649902 2152.469971 2151.040039 2150.030029 2148.830078 2148.350098 2147.060059 2145.800049 2144.100098 2142.449951 2141.689941 2138.979980 2134.290039 2126.820068 2120.879883 2114.320068 2107.280029 2104.800049 2118.860107 2128.080078 2135.439941 -9999.0 -9999.0 -9999.0 -9999.0 -9999.0 -9999.0 -9999.0 -9999.0 -9999.0 -9999.0 -9999.0 -9999.0 -9999.0 -9999.0 -9999.0 -9999.0
-9999.0 -9999.0 -9999.0 -9999.0 -9999.0 -9999.0 -9999.0 -9999.0 -9999.0 -9999.0 -9999.0 -9999.0 -9999.0 -9999.0 -9999.0 -9999.0 -9999.0 -9999.0 -9999.0 -9999.0 -9999.0 -9999.0 -9999.0 -9999.0 -9999.0 -9999.0 -9999.0 -9999.0 -9999.0 -9999.0 -9999.0 -9999.0 -9999.0 -9999.0 -9999.0 -9999.0 -9999.0 -9999.0 -9999.0 -9999.0 -9999.0 -9999.0 -9999.0 -9999.0 -9999.0 -9999.0 -9999.0 -9999.0 -9999.0 -9999.0 -9999.0 -9999.0 -9999.0 -9999.0 -9999.0 -9999.0 -9999.0 -9999.0 -9999.0 -9999.0 -9999.0 -9999.0 -9999.0 -9999.0 -9999.0 -9999.0 -9999.0 2315.100098 2315.840088 2312.080078 2305.489990 2300.310059 2296.479980 2293.629883 2287.860107 2282.830078 2278.709961 2272.260010 2260.350098 2256.090088 2250.500000 2247.280029 2244.639893 2238.530029 2233.790039 2232.379883 2230.389893 2228.149902 2224.909912 2222.449951 2218.169922 2214.540039 2210.489990 2208.169922 2205.979980 2203.080078 2199.669922 2197.600098 2194.530029 2191.399902 2187.780029 2182.750000 2177.800049 2171.580078 2167.689941 2163.350098 2159.379883 2158.209961 2156.610107 2154.330078 2151.760010 2149.929932 2146.780029 2146.370117 2145.100098 2144.360107 2143.239990 2141.229980 2139.510010 2138.189941 2138.139893 2136.489990 2133.110107 2128.770020 2123.979980 2119.110107 2112.139893 2103.040039 2103.770020 2112.020020 2120.820068 2127.510010 -9999.0 -9999.0 -9999.0 -9999.0 -9999.0 -9999.0 -9999.0 -9999.0 -9999.0 -9999.0 -9999.0 -9999.0 -9999.0 -9999.0 -9999.0 -9999.0
-9999.0 -9999.0 -9999.0 -9999.0 -9999.0 -9999.0 -9999.0 -9999.0 -9999.0 -9999.0 -9999.0 -9999.0 -9999.0 -9999.0 -9999.0 -9999.0 -9999.0 -9999.0 -9999.0 -9999.0 -9999.0 -9999.0 -9999.0 -9999.0 -9999.0 -9999.0 -9999.0 -9999.0 -9999.0 -9999.0 -9999.0 -9999.0 -9999.0 -9999.0 -9999.0 -9999.0 -9999.0 -9999.0 -9999.0 -9999.0 -9999.0 -9999.0 -9999.0 -9999.0 -9999.0 -9999.0 -9999.0 -9999.0 -9999.0 -9999.0 -9999.0 -9999.0 -9999.0 -9999.0 -9999.0 -9999.0 -9999.0 -9999.0 -9999.0 -9999.0 -9999.0 -9999.0 -9999.0 -9999.0 -9999.0 -9999.0 -9999.0 2306.850098 2307.830078 2305.699951 2299.389893 2292.290039 2284.520020 2279.459961 2273.959961 2268.800049 2263.479980 2260.459961 2253.899902 2245.540039 2239.830078 2234.280029 2234.520020 2232.370117 2229.350098 2227.659912 2225.449951 2221.610107 2218.389893 2214.530029 2211.080078 2207.649902 2202.899902 2200.219971 2197.860107 2194.870117 2190.270020 2187.790039 2186.459961 2182.570068 2178.459961 2174.469971 2171.909912 2167.340088 2163.510010 2160.699951 2156.860107 2156.219971 2153.659912 2151.979980 2146.909912 2145.050049 2143.939941 2142.699951 2141.290039 2138.620117 2137.719971 2135.899902 2135.540039 2134.790039 2133.560059 2130.969971 2127.419922 2123.370117 2119.159912 2113.459961 2109.100098 2097.580078 2098.909912 2105.159912 2110.219971 2116.879883 -9999.0 -9999.0 -9999.0 -9999.0 -9999.0 -9999.0 -9999.0 -9999.0 -9999.0 -9999.0 -9999.0 -9999.0 -9999.0 -9999.0 -9999.0 -9999.0
-9999.0 -9999.0 -9999.0 -9999.0 -9999.0 -9999.0 -9999.0 -9999.0 -9999.0 -9999.0 -9999.0 -9999.0 -9999.0 -9999.0 -9999.0 -9999.0 -9999.0 -9999.0 -9999.0 -9999.0 -9999.0 -9999.0 -9999.0 -9999.0 -9999.0 -9999.0 -9999.0 -9999.0 -9999.0 -9999.0 -9999.0 -9999.0 -9999.0 -9999.0 -9999.0 -9999.0 -9999.0 -9999.0 -9999.0 -9999.0 -9999.0 -9999.0 -9999.0 -9999.0 -9999.0 -9999.0 -9999.0 -9999.0 -9999.0 -9999.0 -9999.0 -9999.0 -9999.0 -9999.0 -9999.0 -9999.0 -9999.0 -9999.0 -9999.0 -9999.0 -9999.0 -9999.0 -9999.0 -9999.0 -9999.0 -9999.0 -9999.0 2298.389893 2298.179932 2297.229980 2290.750000 2284.860107 2276.550049 2270.409912 2265.330078 2260.989990 2256.139893 2250.879883 2247.199951 2239.330078 2231.520020 2225.580078 2223.600098 2221.310059 2220.840088 2220.209961 2217.800049 2215.040039 2210.989990 2207.959961 2204.469971 2200.340088 2195.909912 2194.159912 2191.389893 2186.909912 2183.360107 2180.899902 2178.500000 2176.780029 2172.639893 2169.669922 2166.790039 2163.350098 2161.560059 2158.449951 2154.449951 2153.080078 2148.780029 2145.780029 2141.979980 2138.989990 2139.750000 2138.879883 2136.439941 2134.020020 2131.719971 2132.449951 2131.909912 2130.889893 2127.129883 2123.500000 2120.100098 2117.189941 2113.310059 2108.040039 2102.550049 2094.750000 2095.780029 2102.110107 2107.500000 2110.929932 -9999.0 -9999.0 -9999.0 -9999.0 -9999.0 -9999.0 -9999.0 -9999.0 -9999.0 -9999.0 -9999.0 -9999.0 -9999.0 -9999.0 -9999.0 -9999.0
-9999.0 -9999.0 -9999.0 -9999.0 -9999.0 -9999.0 -9999.0 -9999.0 -9999.0 -9999.0 -9999.0 -9999.0 -9999.0 -9999.0 -9999.0 -9999.0 -9999.0 -9999.0 -9999.0 -9999.0 -9999.0 -9999.0 -9999.0 -9999.0 -9999.0 -9999.0 -9999.0 -9999.0 -9999.0 -9999.0 -9999.0 -9999.0 -9999.0 -9999.0 -9999.0 -9999.0 -9999.0 -9999.0 -9999.0 -9999.0 -9999.0 -9999.0 -9999.0 -9999.0 -9999.0 -9999.0 -9999.0 -9999.0 -9999.0 -9999.0 -9999.0 -9999.0 -9999.0 -9999.0 -9999.0 -9999.0 -9999.0 -9999.0 -9999.0 -9999.0 -9999.0 -9999.0 -9999.0 -9999.0 -9999.0 -9999.0 -9999.0 2291.280029 2289.979980 2286.750000 2281.790039 2277.030029 2270.739990 2264.169922 2259.129883 2254.820068 2250.120117 2245.090088 2239.530029 2231.919922 2224.149902 2219.050049 2215.320068 2213.439941 2212.850098 2213.060059 2212.239990 2207.580078 2205.489990 2201.760010 2198.989990 2196.030029 2191.419922 2188.399902 2185.989990 2181.699951 2177.879883 2174.489990 2171.919922 2172.550049 2168.860107 2165.780029 2163.350098 2160.379883 2157.429932 2153.000000 2149.929932 2148.070068 2144.070068 2138.580078 2136.989990 2135.530029 2134.120117 2131.520020 2129.120117 2128.479980 2127.530029 2126.229980 2124.840088 2123.209961 2120.360107 2117.080078 2114.159912 2111.399902 2108.750000 2103.639893 2097.959961 2092.870117 2093.360107 2098.639893 2104.770020 -9999.0 -9999.0 -9999.0 -9999.0 -9999.0 -9999.0 -9999.0 -9999.0 -9999.0 -9999.0 -9999.0 -9999.0 -9999.0 -9999.0 -9999.0 -9999.0 -9999.0
-9999.0 -9999.0 -9999.0 -9999.0 -9999.0 -9999.0 -9999.0 -9999.0 -9999.0 -9999.0 -9999.0 -9999.0 -9999.0 -9999.0 -9999.0 -9999.0 -9999.0 -9999.0 -9999.0 -9999.0 -9999.0 -9999.0 -9999.0 -9999.0 -9999.0 -9999.0 -9999.0 -9999.0 -9999.0 -9999.0 -9999.0 -9999.0 -9999.0 -9999.0 -9999.0 -9999.0 -9999.0 -9999.0 -9999.0 -9999.0 -9999.0 -9999.0 -9999.0 -9999.0 -9999.0 -9999.0 -9999.0 -9999.0 -9999.0 -9999.0 -9999.0 -9999.0 -9999.0 -9999.0 -9999.0 -9999.0 -9999.0 -9999.0 -9999.0 -9999.0 -9999.0 -9999.0 -9999.0 -9999.0 -9999.0 -9999.0 2280.469971 2282.489990 2281.830078 2279.399902 2274.610107 2269.939941 2265.629883 2259.689941 2252.870117 2247.979980 2243.790039 2240.030029 2235.409912 2226.459961 2218.689941 2213.729980 2211.439941 2207.540039 2205.139893 2205.879883 2204.129883 2201.370117 2198.379883 2196.310059 2192.750000 2189.860107 2186.669922 2183.120117 2181.179932 2177.370117 2173.020020 2169.899902 2166.739990 2165.770020 2165.679932 2161.959961 2159.699951 2155.790039 2151.370117 2146.290039 2145.219971 2141.100098 2139.080078 2134.770020 2131.639893 2130.350098 2127.979980 2125.560059 2124.590088 2124.040039 2121.620117 2119.739990 2118.030029 2114.899902 2113.669922 2111.459961 2108.830078 2106.649902 2103.850098 2098.000000 2093.620117 2088.000000 2092.330078 2097.120117 -9999.0 -9999.0 -9999.0 -9999.0 -9999.0 -9999.0 -9999.0 -9999.0 -9999.0 -9999.0 -9999.0 -9999.0 -9999.0 -9999.0 -9999.0 -9999.0 -9999.0 -9999.0
-9999.0 -9999.0 -9999.0 -9999.0 -9999.0 -9999.0 -9999.0 -9999.0 -9999.0 -9999.0 -9999.0 -9999.0 -9999.0 -9999.0 -9999.0 -9999.0 -9999.0 -9999.0 -9999.0 -9999.0 -9999.0 -9999.0 -9999.0 -9999.0 -9999.0 -9999.0 -9999.0 -9999.0 -9999.0 -9999.0 -9999.0 -9999.0 -9999.0 -9999.0 -9999.0 -9999.0 -9999.0 -9999.0 -9999.0 -9999.0 -9999.0 -9999.0 -9999.0 -9999.0 -9999.0 -9999.0 -9999.0 -9999.0 -9999.0 -9999.0 -9999.0 -9999.0 -9999.0 -9999.0 -9999.0 -9999.0 -9999.0 -9999.0 -9999.0 -9999.0 -9999.0 -9999.0 -9999.0 -9999.0 -9999.0 -9999.0 2272.179932 2273.100098 2273.260010 2271.120117 2266.850098 2262.500000 2258.570068 2252.260010 2248.620117 2241.560059 2236.600098 2233.070068 2229.550049 2225.179932 2217.149902 2211.939941 2210.889893 2205.729980 2201.419922 2198.800049 2196.750000 2193.500000 2191.659912 2188.060059 2186.080078 2182.939941 2181.000000 2177.959961 2175.409912 2172.149902 2168.889893 2165.560059 2162.439941 2159.659912 2158.939941 2157.040039 2153.219971 2149.929932 2145.860107 2142.489990 2139.530029 2135.810059 2134.489990 2131.929932 2127.929932 2126.149902 2123.489990 2121.139893 2119.830078 2118.510010 2115.780029 2113.530029 2111.570068 2109.689941 2107.540039 2105.239990 2103.610107 2101.280029 2099.709961 2092.030029 2085.719971 2087.439941 2089.989990 2094.939941 -9999.0 -9999.0 -9999.0 -9999.0 -9999.0 -9999.0 -9999.0 -9999.0 -9999.0 -9999.0 -9999.0 -9999.0 -9999.0 -9999.0 -9999.0 -9999.0 -9999.0 -9999.0
-9999.0 -9999.0 -9999.0 -9999.0 -9999.0 -9999.0 -9999.0 -9999.0 -9999.0 -9999.0 -9999.0 -9999.0 -9999.0 -9999.0 -9999.0 -9999.0 -9999.0 -9999.0 -9999.0 -9999.0 -9999.0 -9999.0 -9999.0 -9999.0 -9999.0 -9999.0 -9999.0 -9999.0 -9999.0 -9999.0 -9999.0 -9999.0 -9999.0 -9999.0 -9999.0 -9999.0 -9999.0 -9999.0 -9999.0 -9999.0 -9999.0 -9999.0 -9999.0 -9999.0 -9999.0 -9999.0 -9999.0 -9999.0 -9999.0 -9999.0 -9999.0 -9999.0 -9999.0 -9999.0 -9999.0 -9999.0 -9999.0 -9999.0 -9999.0 -9999.0 -9999.0 -9999.0 -9999.0 -9999.0 -9999.0 -9999.0 2265.020020 2265.879883 2266.270020 2263.750000 2259.899902 2256.500000 2251.929932 2247.330078 2241.409912 2235.469971 2230.639893 2227.489990 2224.030029 2219.689941 2215.790039 2210.070068 2206.719971 2204.320068 2201.679932 2197.439941 2191.909912 2188.250000 2185.639893 2183.179932 2179.580078 2178.399902 2175.469971 2173.870117 2171.000000 2166.689941 2163.530029 2161.800049 2159.199951 2155.050049 2151.870117 2150.239990 2147.439941 2145.060059 2141.409912 2137.399902 2134.629883 2131.760010 2129.500000 2127.709961 2124.540039 2121.060059 2118.459961 2115.050049 2114.479980 2112.479980 2110.239990 2108.070068 2105.979980 2104.229980 2102.429932 2101.199951 2099.500000 2098.280029 2094.120117 2086.629883 2083.989990 2086.219971 2089.649902 2091.439941 -9999.0 -9999.0 -9999.0 -9999.0 -9999.0 -9999.0 -9999.0 -9999.0 -9999.0 -9999.0 -9999.0 -9999.0 -9999.0 -9999.0 -9999.0 -9999.0 -9999.0 -9999.0
-9999.0 -9999.0 -9999.0 -9999.0 -9999.0 -9999.0 -9999.0 -9999.0 -9999.0 -9999.0 -9999.0 -9999.0 -9999.0 -9999.0 -9999.0 -9999.0 -9999.0 -9999.0 -9999.0 -9999.0 -9999.0 -9999.0 -9999.0 -9999.0 -9999.0 -9999.0 -9999.0 -9999.0 -9999.0 -9999.0 -9999.0 -9999.0 -9999.0 -9999.0 -9999.0 -9999.0 -9999.0 -9999.0 -9999.0 -9999.0 -9999.0 -9999.0 -9999.0 -9999.0 -9999.0 -9999.0 -9999.0 -9999.0 -9999.0 -9999.0 -9999.0 -9999.0 -9999.0 -9999.0 -9999.0 -9999.0 -9999.0 -9999.0 -9999.0 -9999.0 -9999.0 -9999.0 -9999.0 -9999.0 -9999.0 -9999.0 2259.179932 2259.330078 2259.310059 2256.899902 2253.919922 2250.679932 2246.739990 2242.729980 2237.000000 2230.110107 2225.370117 2222.489990 2219.530029 2215.199951 2210.979980 2206.870117 2202.139893 2199.800049 2198.100098 2195.810059 2191.330078 2185.629883 2181.959961 2179.080078 2175.840088 2174.120117 2172.060059 2169.739990 2167.219971 2163.000000 2159.840088 2157.540039 2155.679932 2151.120117 2146.590088 2143.780029 2141.389893 2140.540039 2137.560059 2133.459961 2130.000000 2127.580078 2125.750000 2124.090088 2120.320068 2117.969971 2115.239990 2112.919922 2110.669922 2107.800049 2106.080078 2104.239990 2102.239990 2100.560059 2099.070068 2097.860107 2096.699951 2095.449951 2089.479980 2084.060059 2083.169922 2085.530029 2087.969971 2088.449951 2087.850098 -9999.0 -9999.0 -9999.0 -9999.0 -9999.0 -9999.0 -9999.0 -9999.0 -9999.0 -9999.0 -9999.0 -9999.0 -9999.0 -9999.0 -9999.0 -9999.0 -9999.0
-9999.0 -9999.0 -9999.0 -9999.0 -9999.0 -9999.0 -9999.0 -9999.0 -9999.0 -9999.0 -9999.0 -9999.0 -9999.0 -9999.0 -9999.0 -9999.0 -9999.0 -9999.0 -9999.0 -9999.0 -9999.0 -9999.0 -9999.0 -9999.0 -9999.0 -9999.0 -9999.0 -9999.0 -9999.0 -9999.0 -9999.0 -9999.0 -9999.0 -9999.0 -9999.0 -9999.0 -9999.0 -9999.0 -9999.0 -9999.0 -9999.0 -9999.0 -9999.0 -9999.0 -9999.0 -9999.0 -9999.0 -9999.0 -9999.0 -9999.0 -9999.0 -9999.0 -9999.0 -9999.0 -9999.0 -9999.0 -9999.0 -9999.0 -9999.0 -9999.0 -9999.0 -9999.0 -9999.0 -9999.0 -9999.0 -9999.0 2252.449951 2252.679932 2251.889893 2250.350098 2248.300049 2244.699951 2241.139893 2237.449951 2233.429932 2227.030029 2221.209961 2217.919922 2214.729980 2210.860107 2206.659912 2202.800049 2198.770020 2195.120117 2193.030029 2190.370117 2188.040039 2184.879883 2180.169922 2175.290039 2173.280029 2170.850098 2168.340088 2165.699951 2162.889893 2160.669922 2156.760010 2153.159912 2150.179932 2147.760010 2142.709961 2139.739990 2137.409912 2135.649902 2133.820068 2130.139893 2126.810059 2123.739990 2121.719971 2120.020020 2117.300049 2114.479980 2112.169922 2109.479980 2107.540039 2105.010010 2103.169922 2101.479980 2099.770020 2098.010010 2096.479980 2095.350098 2094.169922 2092.790039 2088.209961 2082.409912 2081.330078 2084.250000 2085.149902 2083.399902 2085.229980 -9999.0 -9999.0 -9999.0 -9999.0 -9999.0 -9999.0 -9999.0 -9999.0 -9999.0 -9999.0 -9999.0 -9999.0 -9999.0 -9999.0 -9999.0 -9999.0 -9999.0
-9999.0 -9999.0 -9999.0 -9999.0 -9999.0 -9999.0 -9999.0 -9999.0 -9999.0 -9999.0 -9999.0 -9999.0 -9999.0 -9999.0 -9999.0 -9999.0 -9999.0 -9999.0 -9999.0 -9999.0 -9999.0 -9999.0 -9999.0 -9999.0 -9999.0 -9999.0 -9999.0 -9999.0 -9999.0 -9999.0 -9999.0 -9999.0 -9999.0 -9999.0 -9999.0 -9999.0 -9999.0 -9999.0 -9999.0 -9999.0 -9999.0 -9999.0 -9999.0 -9999.0 -9999.0 -9999.0 -9999.0 -9999.0 -9999.0 -9999.0 -9999.0 -9999.0 -9999.0 -9999.0 -9999.0 -9999.0 -9999.0 -9999.0 -9999.0 -9999.0 -9999.0 -9999.0 -9999.0 -9999.0 -9999.0 -9999.0 2246.370117 2245.860107 2245.149902 2243.159912 2241.320068 2238.870117 2235.300049 2231.530029 2228.040039 2223.709961 2217.979980 2213.469971 2210.070068 2205.800049 2202.379883 2198.340088 2194.770020 2190.929932 2188.129883 2186.219971 2183.669922 2181.419922 2178.260010 2174.350098 2170.239990 2166.530029 2164.560059 2162.800049 2159.760010 2155.989990 2153.340088 2149.669922 2147.010010 2143.780029 2140.040039 2136.800049 2133.870117 2131.780029 2130.300049 2127.709961 2124.959961 2121.340088 2118.929932 2117.010010 2115.469971 2112.780029 2109.969971 2107.489990 2104.929932 2102.889893 2100.989990 2099.169922 2097.540039 2095.110107 2093.699951 2092.879883 2091.870117 2089.969971 2088.000000 2083.459961 2079.219971 2079.270020 2080.429932 2079.060059 2078.550049 -9999.0 -9999.0 -9999.0 -9999.0 -9999.0 -9999.0 -9999.0 -9999.0 -9999.0 -9999.0 -9999.0 -9999.0 -9999.0 -9999.0 -9999.0 -9999.0 -9999.0
