ncols         160
nrows         34
xllcorner     620200.000000
yllcorner     5168000.000000
cellsize      0.500000
NODATA_value  -9999.0
-9999.0 -9999.0 -9999.0 -9999.0 -9999.0 -9999.0 -9999.0 -9999.0 -9999.0 -9999.0 -9999.0 -9999.0 -9999.0 -9999.0 -9999.0 -9999.0 -9999.0 -9999.0 -9999.0 -9999.0 -9999.0 -9999.0 -9999.0 -9999.0 -9999.0 -9999.0 -9999.0 -9999.0 -9999.0 -9999.0 -9999.0 -9999.0 -9999.0 -9999.0 -9999.0 -9999.0 -9999.0 -9999.0 -9999.0 -9999.0 -9999.0 -9999.0 -9999.0 -9999.0 -9999.0 -9999.0 -9999.0 -9999.0 -9999.0 -9999.0 -9999.0 -9999.0 -9999.0 -9999.0 -9999.0 -9999.0 -9999.0 -9999.0 -9999.0 -9999.0 -9999.0 -9999.0 -9999.0 -9999.0 -9999.0 -9999.0 -9999.0 -9999.0 -9999.0 -9999.0 -9999.0 -9999.0 -9999.0 -9999.0 -9999.0 -9999.0 -9999.0 -9999.0 -9999.0 -9999.0 -9999.0 -9999.0 -9999.0 -9999.0 -9999.0 -9999.0 -9999.0 -9999.0 -9999.0 -9999.0 -9999.0 -9999.0 -9999.0 -9999.0 -9999.0 -9999.0 -9999.0 -9999.0 -9999.0 -9999.0 -9999.0 -9999.0 -9999.0 -9999.0 -9999.0 -9999.0 -9999.0 -9999.0 -9999.0 -9999.0 -9999.0 -9999.0 -9999.0 -9999.0 -9999.0 -9999.0 -9999.0 -9999.0 -9999.0 -9999.0 -9999.0 -9999.0 -9999.0 -9999.0 -9999.0 -9999.0 -9999.0 -9999.0 -9999.0 -9999.0 -9999.0 -9999.0 -9999.0 -9999.0 -9999.0 -9999.0 -9999.0 -9999.0 -9999.0 -9999.0 -9999.0 -9999.0 -9999.0 -9999.0 -9999.0 -9999.0 -9999.0 -9999.0 -9999.0 -9999.0 -9999.0 -9999.0 -9999.0 -9999.0 -9999.0 -9999.0 -9999.0 -9999.0 -9999.0 -9999.0
-9999.0 -9999.0 -9999.0 -9999.0 -9999.0 -9999.0 -9999.0 -9999.0 -9999.0 -9999.0 -9999.0 -9999.0 -9999.0 -9999.0 -9999.0 -9999.0 -9999.0 -9999.0 -9999.0 -9999.0 -9999.0 -9999.0 -9999.0 -9999.0 -9999.0 -9999.0 -9999.0 -9999.0 -9999.0 -9999.0 -9999.0 -9999.0 -9999.0 -9999.0 -9999.0 -9999.0 -9999.0 -9999.0 -9999.0 -9999.0 -9999.0 -9999.0 -9999.0 -9999.0 -9999.0 -9999.0 -9999.0 -9999.0 -9999.0 -9999.0 -9999.0 -9999.0 -9999.0 -9999.0 -9999.0 -9999.0 -9999.0 -9999.0 -9999.0 3.675780 3.681450 3.687120 3.692480 3.701930 3.711390 3.720460 3.724630 3.725720 3.726810 3.727360 3.722160 3.714460 3.707040 3.699910 3.697700 3.695390 3.693080 3.692590 3.694020 3.697360 3.700710 3.704190 3.705650 3.714260 3.725840 3.735000 3.737820 3.733250 3.728680 3.726110 3.719740 3.708670 3.697590 3.688900 3.677240 3.671950 3.666660 3.663050 3.666770 3.670020 3.673270 3.677320 3.688080 -9999.0 -9999.0 -9999.0 -9999.0 -9999.0 -9999.0 -9999.0 -9999.0 -9999.0 -9999.0 -9999.0 -9999.0 -9999.0 -9999.0 -9999.0 -9999.0 -9999.0 -9999.0 -9999.0 -9999.0 -9999.0 -9999.0 -9999.0 -9999.0 -9999.0 -9999.0 -9999.0 -9999.0 -9999.0 -9999.0 -9999.0 -9999.0 -9999.0 -9999.0 -9999.0 -9999.0 -9999.0 -9999.0 -9999.0 -9999.0 -9999.0 -9999.0 -9999.0 -9999.0 -9999.0 -9999.0 -9999.0 -9999.0 -9999.0 -9999.0 -9999.0 -9999.0 -9999.0 -9999.0 -9999.0 -9999.0 -9999.0
-9999.0 -9999.0 -9999.0 -9999.0 -9999.0 -9999.0 -9999.0 -9999.0 -9999.0 -9999.0 -9999.0 -9999.0 -9999.0 -9999.0 -9999.0 -9999.0 -9999.0 -9999.0 -9999.0 -9999.0 -9999.0 -9999.0 -9999.0 -9999.0 -9999.0 -9999.0 -9999.0 -9999.0 -9999.0 -9999.0 -9999.0 -9999.0 -9999.0 -9999.0 -9999.0 -9999.0 -9999.0 -9999.0 -9999.0 -9999.0 -9999.0 -9999.0 -9999.0 -9999.0 -9999.0 -9999.0 -9999.0 3.801520 3.819120 3.836730 3.837970 3.815170 3.792370 3.769440 3.749670 3.731590 3.713110 3.694270 3.691110 3.701700 3.706540 3.710090 3.712650 3.718260 3.727400 3.733150 3.738900 3.740640 3.740920 3.741070 3.736970 3.727490 3.719650 3.714980 3.712770 3.710540 3.710190 3.710730 3.711270 3.714270 3.717760 3.721240 3.723080 3.723420 3.731090 3.736310 3.739470 3.740310 3.737930 3.735680 3.732970 3.723130 3.714630 3.706130 3.692150 3.679940 3.674640 3.676690 3.681450 3.684700 3.690390 3.699510 3.709730 3.720530 3.727720 3.732790 3.737390 3.731050 3.724710 3.713950 3.703190 3.690960 3.678720 -9999.0 -9999.0 -9999.0 -9999.0 -9999.0 -9999.0 -9999.0 -9999.0 -9999.0 -9999.0 -9999.0 -9999.0 -9999.0 -9999.0 -9999.0 -9999.0 -9999.0 -9999.0 -9999.0 -9999.0 -9999.0 -9999.0 -9999.0 -9999.0 -9999.0 -9999.0 -9999.0 -9999.0 -9999.0 -9999.0 -9999.0 -9999.0 -9999.0 -9999.0 -9999.0 -9999.0 -9999.0 -9999.0 -9999.0 -9999.0 -9999.0 -9999.0 -9999.0 -9999.0 -9999.0 -9999.0 -9999.0
-9999.0 -9999.0 -9999.0 -9999.0 -9999.0 -9999.0 -9999.0 -9999.0 -9999.0 -9999.0 -9999.0 -9999.0 -9999.0 -9999.0 -9999.0 -9999.0 -9999.0 -9999.0 -9999.0 -9999.0 -9999.0 -9999.0 -9999.0 -9999.0 -9999.0 -9999.0 -9999.0 -9999.0 -9999.0 -9999.0 -9999.0 -9999.0 -9999.0 -9999.0 -9999.0 -9999.0 -9999.0 -9999.0 -9999.0 -9999.0 3.754750 3.749080 3.747240 3.758520 3.770000 3.781480 3.801210 3.819200 3.835470 3.838810 3.836550 3.830540 3.807500 3.784250 3.765650 3.748600 3.730190 3.710940 3.708320 3.719530 3.728380 3.732490 3.732860 3.731340 3.735520 3.740540 3.744210 3.737260 3.736290 3.735300 3.732330 3.728770 3.727260 3.724560 3.719450 3.710720 3.708330 3.707980 3.708000 3.709920 3.713100 3.714930 3.717770 3.723030 3.723810 3.723260 3.722970 3.717520 3.716050 3.715020 3.722310 3.719140 3.712760 3.705760 3.698270 3.690890 3.685520 3.688230 3.689450 3.697200 3.710420 3.721690 3.730230 3.733040 3.735850 3.743050 3.754450 3.747540 3.731830 3.726870 3.722620 3.710250 3.697800 3.687610 3.685840 3.686040 3.686240 3.688570 3.702230 3.716720 3.731210 3.749650 -9999.0 -9999.0 -9999.0 -9999.0 -9999.0 -9999.0 -9999.0 -9999.0 -9999.0 -9999.0 -9999.0 -9999.0 -9999.0 -9999.0 -9999.0 -9999.0 -9999.0 -9999.0 -9999.0 -9999.0 -9999.0 -9999.0 -9999.0 -9999.0 -9999.0 -9999.0 -9999.0 -9999.0 -9999.0 -9999.0 -9999.0 -9999.0 -9999.0 -9999.0 -9999.0 -9999.0 -9999.0 -9999.0
-9999.0 -9999.0 -9999.0 -9999.0 -9999.0 -9999.0 -9999.0 -9999.0 -9999.0 -9999.0 -9999.0 -9999.0 -9999.0 -9999.0 -9999.0 -9999.0 -9999.0 -9999.0 -9999.0 -9999.0 -9999.0 -9999.0 -9999.0 -9999.0 -9999.0 -9999.0 -9999.0 -9999.0 -9999.0 -9999.0 -9999.0 -9999.0 -9999.0 -9999.0 3.844830 3.827380 3.809700 3.792010 3.776050 3.769970 3.764310 3.758650 3.762790 3.768000 3.779480 3.797630 3.817590 3.832400 3.835740 3.838780 3.834650 3.821700 3.805740 3.789740 3.769570 3.747670 3.739290 3.727610 3.724970 3.730450 3.730180 3.729210 3.728070 3.730060 3.733370 3.734520 3.721480 3.712170 3.710830 3.708200 3.705260 3.707210 3.720070 3.723030 3.714440 3.704050 3.698230 3.698340 3.698550 3.699810 3.700960 3.701670 3.704320 3.702960 3.700230 3.698940 3.693450 3.687840 3.685240 3.694560 3.703890 3.703720 3.696160 3.688360 3.680860 3.669480 3.657280 3.658500 3.664000 3.672350 3.685580 3.708550 3.728370 3.738250 3.743980 3.750310 3.751490 3.752680 3.742430 3.740240 3.738340 3.729130 3.718570 3.708390 3.702510 3.702730 3.702960 3.705120 3.714320 3.728810 3.743300 3.759380 3.784120 3.812120 3.839780 3.840270 3.816450 3.792630 -9999.0 -9999.0 -9999.0 -9999.0 -9999.0 -9999.0 -9999.0 -9999.0 -9999.0 -9999.0 -9999.0 -9999.0 -9999.0 -9999.0 -9999.0 -9999.0 -9999.0 -9999.0 -9999.0 -9999.0 -9999.0 -9999.0 -9999.0 -9999.0 -9999.0 -9999.0 -9999.0 -9999.0 -9999.0 -9999.0 -9999.0 -9999.0
-9999.0 -9999.0 -9999.0 -9999.0 -9999.0 -9999.0 -9999.0 -9999.0 -9999.0 -9999.0 -9999.0 -9999.0 -9999.0 -9999.0 -9999.0 -9999.0 -9999.0 -9999.0 -9999.0 -9999.0 -9999.0 -9999.0 -9999.0 -9999.0 -9999.0 -9999.0 -9999.0 -9999.0 3.839330 3.845440 3.851010 3.852880 3.854550 3.856220 3.849520 3.837270 3.819150 3.798440 3.786390 3.779820 3.773870 3.773380 3.778330 3.781070 3.781400 3.793180 3.804970 3.816060 3.826760 3.827990 3.818900 3.805950 3.790920 3.777120 3.762890 3.748970 3.735730 3.715060 3.706860 3.713530 3.720190 3.724660 3.724590 3.724510 3.720790 3.707030 3.693260 3.677900 3.675730 3.673560 3.674040 3.684520 3.694990 3.699830 3.684590 3.669360 3.661380 3.660490 3.659250 3.650310 3.653060 3.656600 3.662780 3.660180 3.656460 3.643980 3.636760 3.630510 3.632620 3.644130 3.654620 3.656810 3.655510 3.654320 3.648600 3.637800 3.627000 3.631310 3.638560 3.648850 3.677710 3.706020 3.722880 3.721370 3.720330 3.724310 3.727090 3.730820 3.738690 3.738750 3.738800 3.738950 3.726690 3.714430 3.710750 3.716420 3.719670 3.721670 3.730360 3.740900 3.755730 3.772310 3.790600 3.818600 3.826100 3.833360 3.811350 3.787530 3.766370 3.741290 3.712270 3.683250 -9999.0 -9999.0 -9999.0 -9999.0 -9999.0 -9999.0 -9999.0 -9999.0 -9999.0 -9999.0 -9999.0 -9999.0 -9999.0 -9999.0 -9999.0 -9999.0 -9999.0 -9999.0 -9999.0 -9999.0 -9999.0 -9999.0 -9999.0 -9999.0 -9999.0 -9999.0 -9999.0 -9999.0
-9999.0 -9999.0 -9999.0 -9999.0 -9999.0 -9999.0 -9999.0 -9999.0 -9999.0 -9999.0 -9999.0 -9999.0 -9999.0 -9999.0 -9999.0 -9999.0 -9999.0 -9999.0 -9999.0 -9999.0 -9999.0 -9999.0 -9999.0 3.867370 3.861210 3.855060 3.848180 3.847690 3.852540 3.858650 3.862380 3.864450 3.866320 3.862480 3.854220 3.840880 3.825430 3.804720 3.796730 3.790160 3.778090 3.776840 3.773450 3.770060 3.772480 3.775360 3.787090 3.795770 3.789800 3.783850 3.778460 3.772210 3.760470 3.745620 3.728620 3.708790 3.688120 3.670120 3.654000 3.660660 3.670140 3.682410 3.682610 3.679000 3.670800 3.657630 3.638770 3.615070 3.611430 3.607600 3.602990 3.613470 3.625430 3.637700 3.623480 3.614520 3.605560 3.601560 3.589220 3.579150 3.584750 3.594170 3.603410 3.597070 3.582200 3.567780 3.562260 3.559660 3.558570 3.567440 3.572160 3.575400 3.575830 3.580270 3.578100 3.566260 3.550390 3.549180 3.560430 3.582620 3.617000 3.652200 3.675540 3.671950 3.677700 3.682900 3.687350 3.701520 3.713300 3.713610 3.722940 3.729100 3.717590 3.711430 3.709230 3.714910 3.709120 3.716850 3.734120 3.751400 3.767060 3.781350 3.795640 3.803150 3.812370 3.819690 3.807360 3.786980 3.766600 3.741440 3.712410 3.684960 3.660270 3.643680 3.630510 3.617340 -9999.0 -9999.0 -9999.0 -9999.0 -9999.0 -9999.0 -9999.0 -9999.0 -9999.0 -9999.0 -9999.0 -9999.0 -9999.0 -9999.0 -9999.0 -9999.0 -9999.0 -9999.0 -9999.0 -9999.0 -9999.0 -9999.0 -9999.0 -9999.0
-9999.0 -9999.0 -9999.0 -9999.0 -9999.0 -9999.0 -9999.0 -9999.0 -9999.0 -9999.0 -9999.0 -9999.0 -9999.0 -9999.0 -9999.0 -9999.0 -9999.0 -9999.0 -9999.0 3.891490 3.890950 3.890400 3.886250 3.885410 3.883380 3.876700 3.868960 3.867530 3.869380 3.871690 3.870610 3.868470 3.864960 3.853800 3.840470 3.826960 3.813230 3.793180 3.779180 3.765670 3.750150 3.752760 3.758200 3.761300 3.761580 3.761280 3.754290 3.750370 3.745760 3.739780 3.733130 3.725600 3.716560 3.699260 3.680130 3.661010 3.642650 3.625400 3.608150 3.611780 3.624050 3.636330 3.636380 3.628180 3.619990 3.602110 3.578250 3.554050 3.541170 3.532910 3.524640 3.531350 3.540040 3.549160 3.545890 3.533350 3.521520 3.509930 3.498090 3.486600 3.491750 3.500400 3.502210 3.498770 3.483980 3.471120 3.466310 3.463740 3.458650 3.462920 3.470370 3.478890 3.487360 3.494720 3.499580 3.485820 3.472060 3.473270 3.495460 3.517650 3.548300 3.582560 3.616670 3.623610 3.623140 3.624500 3.640030 3.655320 3.675520 3.687510 3.696300 3.711850 3.707700 3.701380 3.689950 3.679330 3.680500 3.696730 3.713920 3.733140 3.752060 3.766350 3.770620 3.775370 3.784590 3.790600 3.784580 3.770710 3.756830 3.743900 3.717060 3.690210 3.670880 3.652280 3.639110 3.624850 3.617750 3.624800 3.633050 3.641290 -9999.0 -9999.0 -9999.0 -9999.0 -9999.0 -9999.0 -9999.0 -9999.0 -9999.0 -9999.0 -9999.0 -9999.0 -9999.0 -9999.0 -9999.0 -9999.0 -9999.0 -9999.0 -9999.0 -9999.0
-9999.0 -9999.0 -9999.0 -9999.0 -9999.0 -9999.0 -9999.0 -9999.0 -9999.0 -9999.0 -9999.0 -9999.0 -9999.0 -9999.0 -9999.0 -9999.0 3.918970 3.917340 3.915650 3.910700 3.908900 3.905370 3.898990 3.898490 3.894970 3.888350 3.883720 3.875940 3.868810 3.861980 3.856620 3.854480 3.847090 3.837980 3.826680 3.811390 3.789970 3.768560 3.753240 3.737730 3.722200 3.722990 3.725050 3.724780 3.724480 3.716150 3.698360 3.692790 3.688870 3.669610 3.656380 3.652030 3.646460 3.630910 3.609390 3.583770 3.553190 3.532790 3.515140 3.509660 3.523570 3.527460 3.523130 3.513320 3.509080 3.498410 3.472260 3.439500 3.414510 3.392310 3.389190 3.399210 3.408830 3.422950 3.430480 3.419230 3.408060 3.396780 3.385330 3.373880 3.365350 3.365180 3.365000 3.363060 3.361010 3.356510 3.350350 3.343680 3.336250 3.333080 3.340900 3.349860 3.360220 3.369990 3.372900 3.375520 3.369980 3.369630 3.385950 3.409920 3.436140 3.468110 3.496650 3.517810 3.517340 3.530850 3.546760 3.568620 3.605630 3.626230 3.643380 3.673920 3.678940 3.666450 3.651030 3.644240 3.660470 3.676710 3.695600 3.716360 3.737050 3.743470 3.744630 3.747590 3.753140 3.755700 3.751550 3.739050 3.736550 3.725350 3.708090 3.693910 3.673890 3.657000 3.645130 3.630650 3.634710 3.640820 3.649070 3.657600 3.667800 3.682930 3.699840 3.716750 -9999.0 -9999.0 -9999.0 -9999.0 -9999.0 -9999.0 -9999.0 -9999.0 -9999.0 -9999.0 -9999.0 -9999.0 -9999.0 -9999.0 -9999.0 -9999.0
-9999.0 -9999.0 -9999.0 -9999.0 -9999.0 -9999.0 -9999.0 -9999.0 -9999.0 -9999.0 -9999.0 -9999.0 -9999.0 3.961350 3.957380 3.948830 3.941870 3.940250 3.937050 3.932100 3.920450 3.917480 3.911730 3.904530 3.894020 3.886140 3.877400 3.866240 3.858300 3.851700 3.845100 3.838340 3.824860 3.809960 3.794570 3.775120 3.754910 3.734700 3.714510 3.701320 3.688120 3.684620 3.687940 3.687670 3.680080 3.662290 3.644500 3.631540 3.609630 3.587730 3.574820 3.562860 3.555500 3.546120 3.529290 3.496310 3.463340 3.437430 3.423080 3.408730 3.408960 3.406970 3.405280 3.401040 3.397040 3.390590 3.361000 3.328500 3.299220 3.276470 3.268510 3.278130 3.288240 3.299300 3.309420 3.310690 3.299350 3.284450 3.269220 3.258740 3.254340 3.255380 3.255100 3.254180 3.251550 3.249850 3.245810 3.239250 3.228650 3.215830 3.218180 3.234020 3.247710 3.263730 3.270670 3.273100 3.277400 3.276830 3.276300 3.297360 3.320160 3.348130 3.378990 3.401050 3.419950 3.436130 3.452970 3.490070 3.527170 3.559510 3.587930 3.616340 3.622590 3.595090 3.570800 3.581360 3.592550 3.610260 3.635150 3.660090 3.686200 3.694040 3.697360 3.703190 3.709610 3.716020 3.722520 3.720600 3.718100 3.706840 3.696860 3.686880 3.668670 3.659340 3.650020 3.645570 3.651680 3.657780 3.665640 3.675850 3.686050 3.699290 3.716200 3.729100 3.736160 3.724040 3.711170 -9999.0 -9999.0 -9999.0 -9999.0 -9999.0 -9999.0 -9999.0 -9999.0 -9999.0 -9999.0 -9999.0 -9999.0 -9999.0
-9999.0 -9999.0 -9999.0 -9999.0 -9999.0 -9999.0 -9999.0 -9999.0 -9999.0 -9999.0 3.997860 3.995170 3.998800 3.997460 3.993490 3.982210 3.969890 3.963150 3.952720 3.933050 3.916980 3.914010 3.899490 3.890290 3.884430 3.874180 3.861650 3.849120 3.832110 3.820020 3.807360 3.786650 3.771160 3.756010 3.739720 3.721820 3.701610 3.672180 3.646500 3.633310 3.609820 3.595280 3.600010 3.601290 3.595730 3.579030 3.555970 3.529830 3.509030 3.484490 3.464860 3.452810 3.444330 3.434210 3.422250 3.396840 3.363740 3.336440 3.311610 3.297770 3.293320 3.292720 3.291040 3.285760 3.280580 3.272440 3.255170 3.223750 3.191280 3.165130 3.159850 3.166950 3.177040 3.188480 3.196740 3.200000 3.196090 3.188600 3.176180 3.164680 3.153060 3.152080 3.151630 3.152290 3.150690 3.149340 3.148770 3.143900 3.134710 3.125980 3.123520 3.132410 3.147960 3.165270 3.174690 3.182060 3.187310 3.187490 3.186180 3.185800 3.203730 3.233140 3.272760 3.301570 3.322760 3.333500 3.344790 3.355840 3.391180 3.410580 3.438490 3.472250 3.501330 3.475700 3.485980 3.496280 3.512980 3.537810 3.562680 3.588780 3.615920 3.627540 3.633350 3.641140 3.647670 3.656670 3.667570 3.672480 3.679480 3.683290 3.675960 3.669020 3.661500 3.648770 3.641350 3.648660 3.653900 3.662510 3.678370 3.691630 3.704300 3.715650 3.726900 3.733960 3.741030 3.732910 3.720040 3.705730 3.694270 -9999.0 -9999.0 -9999.0 -9999.0 -9999.0 -9999.0 -9999.0 -9999.0 -9999.0 -9999.0 -9999.0
-9999.0 -9999.0 -9999.0 -9999.0 -9999.0 -9999.0 -9999.0 -9999.0 4.021270 4.014980 4.008700 4.011940 4.017030 4.019960 4.007830 3.992470 3.977100 3.961080 3.945740 3.928770 3.913510 3.897240 3.878990 3.867730 3.856380 3.842020 3.829060 3.811390 3.790990 3.776010 3.756660 3.735950 3.717450 3.701160 3.684860 3.668520 3.640770 3.608610 3.578490 3.554800 3.529600 3.505950 3.506480 3.504350 3.501270 3.477510 3.449770 3.422120 3.395830 3.369430 3.343030 3.329750 3.321950 3.312290 3.300260 3.289620 3.270900 3.245050 3.217970 3.199400 3.190140 3.189490 3.187100 3.181180 3.174090 3.162570 3.147790 3.131970 3.110010 3.087520 3.070550 3.072150 3.081130 3.094820 3.096940 3.097230 3.096590 3.092410 3.088160 3.076140 3.063400 3.058530 3.057960 3.060210 3.058540 3.057860 3.057920 3.058280 3.056320 3.051410 3.049430 3.051860 3.063580 3.080340 3.095680 3.104840 3.109250 3.112390 3.112750 3.114380 3.122180 3.143390 3.173100 3.204860 3.227780 3.242450 3.252270 3.258840 3.265050 3.276840 3.299000 3.334070 3.369400 3.388020 3.397260 3.408570 3.432180 3.458120 3.479030 3.510530 3.542040 3.563440 3.571230 3.579020 3.588680 3.600850 3.612610 3.620780 3.635210 3.644470 3.638430 3.640410 3.638190 3.629080 3.637920 3.646210 3.654330 3.671760 3.688150 3.701410 3.711870 3.719210 3.727950 3.736370 3.744790 3.740280 3.725250 3.710210 3.700560 3.690010 3.673770 3.657530 -9999.0 -9999.0 -9999.0 -9999.0 -9999.0 -9999.0 -9999.0 -9999.0
-9999.0 -9999.0 -9999.0 -9999.0 -9999.0 -9999.0 4.045790 4.022050 4.007750 4.015610 4.022550 4.025720 4.028880 4.012950 3.992490 3.976450 3.960510 3.944030 3.928570 3.913240 3.877810 3.863250 3.848680 3.828570 3.815850 3.803130 3.786820 3.764170 3.741530 3.708600 3.678180 3.651750 3.627360 3.609800 3.593760 3.576400 3.547330 3.513480 3.480860 3.453970 3.429850 3.404970 3.396670 3.392440 3.385490 3.371340 3.346190 3.320050 3.289370 3.260510 3.239250 3.230220 3.222580 3.214010 3.203750 3.193660 3.183620 3.163130 3.140850 3.118020 3.102300 3.097300 3.091230 3.087570 3.077360 3.062880 3.048370 3.039260 3.027790 3.011640 3.002610 2.997130 2.995600 2.994910 2.992770 2.992780 2.992600 2.991990 2.991470 2.991470 2.988860 2.988410 2.988410 2.988410 2.987920 2.987920 2.987620 2.987940 2.989630 2.989630 2.989630 2.989630 2.991730 2.999290 3.013390 3.023560 3.029970 3.036650 3.044610 3.053240 3.061390 3.072960 3.094250 3.123330 3.151060 3.162160 3.166500 3.169260 3.171860 3.182650 3.199460 3.222810 3.255530 3.292820 3.304560 3.318910 3.340630 3.357230 3.369170 3.400680 3.434270 3.460450 3.472180 3.491980 3.511550 3.527660 3.546330 3.564210 3.581560 3.600530 3.603690 3.606350 3.611270 3.619790 3.627180 3.637620 3.656140 3.673830 3.692650 3.699360 3.705560 3.714520 3.723910 3.732330 3.738220 3.738610 3.729730 3.714690 3.706220 3.697860 3.685760 3.674070 3.666370 3.658670 -9999.0 -9999.0 -9999.0 -9999.0 -9999.0 -9999.0
-9999.0 -9999.0 -9999.0 -9999.0 4.078870 4.058160 4.037440 4.006790 3.984460 3.990350 3.982760 3.982020 3.983010 3.981700 3.977220 3.959980 3.943500 3.927020 3.908300 3.869290 3.830280 3.813890 3.786610 3.755660 3.742790 3.729550 3.716040 3.694610 3.665420 3.631780 3.585880 3.547880 3.524300 3.504260 3.487260 3.467380 3.440720 3.409180 3.377820 3.347670 3.321290 3.301220 3.289030 3.283610 3.274940 3.263610 3.247760 3.225220 3.200390 3.172770 3.150380 3.136910 3.130420 3.122370 3.113070 3.102250 3.092120 3.080190 3.063980 3.043380 3.029200 3.020660 3.013740 3.009700 2.999650 2.989660 2.987300 2.987300 2.987300 2.987300 2.987300 2.987300 2.987300 2.989330 2.989330 2.990370 2.995680 3.004240 3.002840 3.001680 2.999310 2.996010 2.997480 2.996720 2.993880 2.995150 3.000090 3.003220 3.004760 3.004710 2.997960 2.995170 2.994530 2.993810 2.994260 2.994260 2.994260 2.994260 2.994260 2.994260 2.998970 3.006660 3.024710 3.050000 3.077470 3.093190 3.099510 3.096990 3.098970 3.103320 3.119450 3.142610 3.173260 3.206570 3.224830 3.235610 3.242510 3.249730 3.261030 3.293210 3.328040 3.356980 3.377550 3.403430 3.424370 3.443580 3.465330 3.484350 3.504140 3.528240 3.538000 3.544580 3.567940 3.581590 3.590880 3.614430 3.635110 3.653310 3.674310 3.693040 3.700350 3.709830 3.719310 3.728170 3.728550 3.728930 3.729310 3.720230 3.711870 3.703540 3.695260 3.687320 3.679420 3.671520 3.663630 3.661960 -9999.0 -9999.0 -9999.0 -9999.0
-9999.0 -9999.0 -9999.0 4.123640 4.085610 4.049810 4.022220 3.991540 3.960690 3.953300 3.945700 3.938310 3.930570 3.921600 3.910840 3.895610 3.883600 3.873770 3.854350 3.818710 3.783070 3.747880 3.717140 3.686390 3.664040 3.650260 3.636480 3.614490 3.577970 3.540970 3.494740 3.447230 3.414330 3.393350 3.378430 3.358500 3.340720 3.313560 3.284650 3.257010 3.230150 3.208950 3.191790 3.186360 3.181100 3.174200 3.158960 3.140950 3.123230 3.099590 3.075530 3.057520 3.047460 3.040970 3.028490 3.016390 3.007120 2.996750 2.986460 2.986460 2.986460 2.986460 2.985260 2.983440 2.983940 2.987300 2.990940 2.995280 2.996180 2.997300 2.999510 2.998790 3.000650 3.004240 3.007150 3.012180 3.021900 3.033030 3.034700 3.029930 3.025430 3.021800 3.019600 3.016660 3.014810 3.018830 3.025910 3.032330 3.034350 3.028380 3.023140 3.018990 3.018510 3.019830 3.021400 3.020820 3.022580 3.021880 3.016130 3.004550 2.996850 2.996850 2.996850 2.996850 2.996850 3.016810 3.034530 3.031980 3.035480 3.045420 3.063670 3.084060 3.108800 3.132800 3.157300 3.164600 3.168150 3.172870 3.178880 3.207400 3.238260 3.269180 3.294420 3.319020 3.341990 3.363480 3.384980 3.407760 3.431860 3.455960 3.477890 3.501250 3.524600 3.544140 3.567690 3.591250 3.614080 3.634200 3.650860 3.667530 3.679570 3.685940 3.692320 3.714120 3.716210 3.716730 3.717260 3.717150 3.717770 3.709490 3.701210 3.693190 3.685290 3.678130 3.674450 3.672700 3.678730 3.684760 -9999.0 -9999.0
-9999.0 -9999.0 4.169230 4.133190 4.097150 4.044560 3.992670 3.960220 3.919790 3.893860 3.886570 3.866970 3.849570 3.840600 3.823060 3.805940 3.796010 3.795360 3.786300 3.748970 3.695200 3.647060 3.611960 3.557780 3.528690 3.511680 3.503240 3.483210 3.457060 3.417400 3.374300 3.333170 3.299710 3.273750 3.263900 3.252150 3.234700 3.219280 3.193950 3.168420 3.144180 3.122650 3.103800 3.096130 3.092880 3.080880 3.063110 3.044600 3.026830 3.010360 2.993660 2.993340 2.993340 2.993340 2.993340 2.993340 2.993340 2.993340 2.995560 3.000950 3.006270 3.006780 3.002990 2.996370 2.994800 3.001290 3.008770 3.014910 3.020600 3.022150 3.023590 3.024260 3.024220 3.029090 3.035260 3.048540 3.059460 3.070280 3.076050 3.076460 3.070460 3.061950 3.054540 3.050350 3.054980 3.061360 3.070700 3.078390 3.078260 3.075230 3.066970 3.055720 3.053580 3.053150 3.057270 3.060380 3.065760 3.067220 3.060690 3.047040 3.034020 3.022800 3.016070 3.009630 3.004130 2.996960 2.996960 2.996960 2.996960 3.000960 3.013210 3.030020 3.048360 3.068900 3.092700 3.100290 3.103210 3.106950 3.108670 3.131640 3.162290 3.193010 3.220520 3.245190 3.266550 3.288040 3.311270 3.335660 3.359750 3.387220 3.418170 3.442240 3.466340 3.490600 3.513520 3.536380 3.564540 3.586620 3.603290 3.620010 3.636760 3.643720 3.662260 3.687890 3.702180 3.702710 3.701330 3.700040 3.704580 3.709120 3.707170 3.699070 3.693250 3.689570 3.685890 3.683440 3.689470 -9999.0 -9999.0 -9999.0
-9999.0 -9999.0 4.192750 4.149630 4.104950 4.032100 3.959760 3.921990 3.879090 3.836190 3.817210 3.794670 3.772130 3.750020 3.727230 3.703460 3.703800 3.703580 3.705570 3.654920 3.600530 3.537400 3.465790 3.416540 3.385350 3.382310 3.380230 3.366510 3.345600 3.307140 3.262030 3.219810 3.182850 3.158640 3.147940 3.137590 3.123190 3.109430 3.096230 3.068230 3.052000 3.034390 3.015380 2.999370 2.993660 2.993660 2.993660 2.993660 2.993660 2.993660 2.994040 2.997230 2.998130 2.997680 2.996720 3.001310 3.007240 3.013110 3.017520 3.023730 3.029200 3.030420 3.027310 3.023420 3.025670 3.031860 3.041210 3.050960 3.059680 3.064090 3.063020 3.060670 3.059870 3.064930 3.077570 3.093280 3.105620 3.118610 3.122120 3.125820 3.127310 3.116600 3.101830 3.096610 3.107800 3.116530 3.129470 3.137050 3.139400 3.137480 3.128180 3.111050 3.095950 3.095720 3.104650 3.113420 3.118670 3.121410 3.114730 3.097310 3.079820 3.067510 3.059760 3.054820 3.047360 3.038620 3.028700 3.017640 3.008390 2.997910 2.997550 2.997550 2.997550 3.013030 3.029310 3.040980 3.050830 3.056460 3.064760 3.082780 3.106490 3.130520 3.155740 3.175970 3.192720 3.214630 3.239090 3.263550 3.292430 3.324010 3.355600 3.381150 3.405410 3.429670 3.453050 3.480830 3.509680 3.538530 3.555760 3.572500 3.589250 3.609130 3.634040 3.658940 3.684350 3.686520 3.685060 3.683600 3.687480 3.692010 3.697720 3.702980 3.701550 3.700130 3.697340 3.694170 -9999.0 -9999.0 -9999.0 -9999.0
-9999.0 4.277040 4.225530 4.170480 4.098450 4.027260 3.938750 3.857270 3.812150 3.773840 3.746970 3.724600 3.663760 3.614290 3.590340 3.562360 3.568390 3.574740 3.584410 3.549510 3.499130 3.415130 3.309750 3.265130 3.244850 3.244650 3.250170 3.238090 3.215150 3.182170 3.133840 3.102080 3.067350 3.041580 3.033880 3.032660 3.021100 3.006850 2.990970 2.989030 2.989030 2.989030 2.993660 2.993660 2.993660 2.993660 2.996680 3.002550 3.009890 3.015100 3.018900 3.023400 3.021020 3.017800 3.016400 3.022900 3.030150 3.037200 3.043970 3.050220 3.055560 3.059010 3.060530 3.061510 3.066400 3.072270 3.081000 3.091390 3.101110 3.112340 3.114220 3.114830 3.111840 3.121540 3.132110 3.150600 3.164860 3.179350 3.187020 3.192280 3.197080 3.188970 3.172520 3.163250 3.178570 3.188910 3.202750 3.209770 3.213010 3.211700 3.202030 3.179130 3.161170 3.156010 3.164930 3.173330 3.178190 3.180230 3.176460 3.161610 3.142770 3.125060 3.112950 3.105580 3.098700 3.089380 3.076430 3.064090 3.051910 3.037030 3.020670 3.008460 3.000560 2.994950 2.994950 2.994950 3.002530 3.010740 3.019930 3.034130 3.054730 3.079310 3.103870 3.120260 3.135870 3.149890 3.172940 3.201890 3.230420 3.261760 3.293220 3.320060 3.344350 3.368480 3.387810 3.414190 3.440560 3.465400 3.484810 3.499360 3.516430 3.539030 3.563930 3.589280 3.620380 3.637370 3.646090 3.656160 3.674450 3.681540 3.688630 3.695720 3.695570 3.694150 -9999.0 -9999.0 -9999.0 -9999.0 -9999.0 -9999.0
-9999.0 4.309810 4.248820 4.175210 4.102030 4.017350 3.898070 3.779450 3.738560 3.708010 3.677450 3.622940 3.538130 3.477210 3.444370 3.410170 3.414860 3.429110 3.430370 3.401070 3.353600 3.289430 3.185630 3.116550 3.116640 3.108980 3.102020 3.082850 3.058860 3.038630 3.022810 3.002060 3.000020 3.000020 3.000020 3.000020 3.000020 3.000020 3.003430 3.006960 3.011440 3.011420 3.008150 3.008460 3.010990 3.013620 3.018840 3.026290 3.031940 3.036480 3.039260 3.042330 3.043490 3.042600 3.045980 3.051220 3.059330 3.067980 3.076090 3.085060 3.094130 3.098680 3.097140 3.102620 3.107890 3.116720 3.154720 3.168510 3.183470 3.195920 3.199060 3.203940 3.205150 3.213040 3.219600 3.230750 3.245790 3.261820 3.275890 3.280490 3.284460 3.287760 3.277180 3.272380 3.275770 3.283710 3.292180 3.296850 3.299580 3.295570 3.282030 3.268410 3.256350 3.251650 3.258110 3.255300 3.252260 3.254180 3.241640 3.229110 3.212700 3.193270 3.173650 3.164070 3.156470 3.147010 3.133090 3.118040 3.102730 3.082410 3.061050 3.047480 3.038020 3.027440 3.016780 3.004990 2.994950 2.992020 2.992020 2.997250 3.014400 3.035130 3.054370 3.071010 3.084540 3.096220 3.112600 3.144210 3.172990 3.202700 3.231170 3.258870 3.278220 3.295130 3.315210 3.336760 3.362470 3.385020 3.407570 3.424740 3.447330 3.469920 3.494210 3.525320 3.556420 3.581140 3.594660 3.613580 3.632370 3.650960 3.669550 3.686630 3.689590 -9999.0 -9999.0 -9999.0 -9999.0 -9999.0 -9999.0 -9999.0
-9999.0 4.329590 4.261980 4.194370 4.113480 3.980030 3.861050 3.738400 3.655430 3.622390 3.568070 3.480310 3.394600 3.320970 3.281760 3.262830 3.252180 3.257310 3.242540 3.207550 3.159280 3.104520 3.065380 3.018630 3.013070 3.013070 3.013070 3.013070 3.013070 3.013070 3.013070 3.014910 3.010600 3.008640 3.009890 3.012700 3.017160 3.024680 3.029680 3.032650 3.035920 3.035950 3.033070 3.032610 3.034870 3.038500 3.042880 3.048490 3.054280 3.060510 3.063900 3.067380 3.069150 3.072830 3.077080 3.082240 3.093200 3.104740 3.116760 3.127470 3.137980 3.147400 3.145360 3.147670 3.152820 3.182960 3.223150 3.251580 3.267430 3.285560 3.292910 3.298390 3.314910 3.325120 3.332640 3.332130 3.343930 3.360480 3.374530 3.380810 3.384990 3.394220 3.396650 3.392610 3.384260 3.391830 3.396500 3.394900 3.397630 3.399430 3.389730 3.375020 3.366580 3.359160 3.353330 3.351400 3.349070 3.330300 3.318890 3.306490 3.288320 3.268550 3.248370 3.232230 3.221870 3.209890 3.193140 3.178320 3.159420 3.137630 3.112080 3.095800 3.083450 3.073210 3.062730 3.048520 3.031190 3.016890 3.003020 2.992020 2.992020 2.992020 3.012980 3.027310 3.041300 3.048760 3.067360 3.092430 3.119460 3.148150 3.175280 3.195090 3.206530 3.222830 3.244100 3.265660 3.285960 3.308950 3.331840 3.353680 3.376140 3.398590 3.421590 3.453230 3.484870 3.514210 3.552080 3.571010 3.589890 3.608480 3.627070 -9999.0 -9999.0 -9999.0 -9999.0 -9999.0 -9999.0 -9999.0 -9999.0 -9999.0
-9999.0 4.406800 4.326300 4.258690 4.108200 3.949640 3.829130 3.676290 3.555820 3.509790 3.420180 3.331770 3.253750 3.200010 3.161950 3.124830 3.102480 3.082090 3.058690 3.041640 3.016570 3.004650 3.004650 3.004650 3.013070 3.013070 3.020220 3.038310 3.048460 3.055150 3.053580 3.046680 3.040940 3.035290 3.037310 3.037340 3.038330 3.042060 3.045500 3.053070 3.060310 3.065210 3.065830 3.060260 3.065120 3.068620 3.073930 3.080970 3.088660 3.095790 3.102470 3.108490 3.110910 3.115950 3.116790 3.122820 3.146280 3.162560 3.176300 3.190030 3.204330 3.222260 3.222100 3.226800 3.237080 3.275860 3.315100 3.344830 3.363580 3.384650 3.396940 3.414550 3.440690 3.457140 3.455820 3.449390 3.453430 3.467310 3.479680 3.488780 3.498830 3.512250 3.520240 3.512970 3.504620 3.502770 3.501540 3.498380 3.498260 3.499740 3.501120 3.490950 3.483150 3.474360 3.466910 3.460670 3.438130 3.417120 3.403840 3.386480 3.368670 3.348270 3.326980 3.309150 3.296270 3.280270 3.263020 3.244330 3.224610 3.200710 3.173320 3.152550 3.139730 3.128110 3.115690 3.098500 3.077810 3.058180 3.037420 3.018870 3.008730 2.997280 2.987470 2.987470 3.002440 3.013390 3.027180 3.046700 3.073570 3.098990 3.120750 3.138420 3.150770 3.159710 3.179030 3.199070 3.215060 3.238020 3.259460 3.280980 3.303430 3.325130 3.346720 3.375460 3.403860 3.431630 3.471270 3.512830 3.547360 -9999.0 -9999.0 -9999.0 -9999.0 -9999.0 -9999.0 -9999.0 -9999.0 -9999.0 -9999.0 -9999.0
-9999.0 4.487350 4.406800 4.290540 4.128060 3.965570 3.808030 3.638290 3.469300 3.382480 3.307370 3.266020 3.205190 3.142100 3.083100 3.054080 3.041640 3.041640 3.041640 3.048210 3.076380 3.085000 3.073020 3.053580 3.046540 3.044220 3.053600 3.065420 3.072470 3.073600 3.074330 3.073970 3.073960 3.075120 3.078270 3.077290 3.073560 3.078690 3.085520 3.092300 3.098500 3.105760 3.110630 3.112770 3.114770 3.114960 3.121530 3.130820 3.140110 3.147180 3.154150 3.159530 3.160910 3.164630 3.169710 3.179110 3.204210 3.228360 3.247600 3.267680 3.298090 3.309580 3.314450 3.318150 3.343490 3.381700 3.419910 3.445490 3.466710 3.487930 3.509560 3.535320 3.561070 3.578100 3.571610 3.565120 3.557740 3.570010 3.582270 3.589100 3.602450 3.615790 3.628390 3.619960 3.611530 3.598460 3.595810 3.593240 3.588300 3.590150 3.592020 3.596700 3.588320 3.579950 3.569170 3.546600 3.523810 3.502240 3.484750 3.467400 3.448010 3.426730 3.405440 3.384000 3.367930 3.351860 3.333120 3.314570 3.296010 3.274280 3.249000 3.227580 3.211200 3.193790 3.179660 3.157980 3.131770 3.107870 3.079600 3.060450 3.046060 3.033310 3.020310 3.003850 2.991530 2.991530 2.992850 3.013430 3.030600 3.053280 3.071600 3.087690 3.096240 3.101430 3.113970 3.131360 3.147970 3.168100 3.188450 3.208810 3.230940 3.253670 3.276400 3.304290 3.333360 3.362380 3.403300 3.445780 -9999.0 -9999.0 -9999.0 -9999.0 -9999.0 -9999.0 -9999.0 -9999.0 -9999.0 -9999.0 -9999.0 -9999.0
-9999.0 4.565330 4.455070 4.344800 4.197970 4.055020 3.910560 3.740820 3.582860 3.397670 3.239370 3.222030 3.201000 3.165540 3.108870 3.060210 3.057120 3.090410 3.119100 3.138030 3.143120 3.138620 3.126830 3.107930 3.094160 3.087220 3.088740 3.097960 3.111290 3.118460 3.122010 3.128870 3.134160 3.134390 3.136280 3.131570 3.128080 3.136670 3.148110 3.161730 3.173850 3.182920 3.186110 3.185530 3.185870 3.188300 3.194850 3.203850 3.214840 3.224520 3.231790 3.236600 3.241470 3.248570 3.256890 3.266580 3.290520 3.311660 3.332250 3.360330 3.398610 3.423520 3.428480 3.452910 3.480870 3.519090 3.541450 3.559500 3.580720 3.600560 3.619970 3.645470 3.667890 3.689230 3.685010 3.673540 3.660590 3.669470 3.674800 3.678160 3.689760 3.702900 3.715970 3.712300 3.698470 3.682680 3.677190 3.671650 3.664710 3.664860 3.670640 3.678770 3.673610 3.661710 3.647290 3.626330 3.605160 3.585020 3.567090 3.547200 3.526200 3.504950 3.482060 3.458660 3.442360 3.421880 3.400250 3.381690 3.369680 3.354110 3.329790 3.312340 3.292900 3.273370 3.258660 3.232290 3.201670 3.165610 3.130340 3.100670 3.087190 3.074460 3.063200 3.046450 3.026990 3.009810 2.995420 2.992850 2.992850 3.007300 3.023760 3.038740 3.048230 3.056710 3.063230 3.072450 3.089550 3.109950 3.130430 3.151080 3.168080 3.188720 3.214130 3.243700 3.273270 3.303090 -9999.0 -9999.0 -9999.0 -9999.0 -9999.0 -9999.0 -9999.0 -9999.0 -9999.0 -9999.0 -9999.0 -9999.0 -9999.0 -9999.0
-9999.0 -9999.0 4.520050 4.406540 4.284460 4.150970 4.012740 3.849340 3.696070 3.515680 3.408940 3.335510 3.295530 3.260300 3.209060 3.166720 3.162360 3.161090 3.192430 3.200230 3.202410 3.201660 3.193860 3.182280 3.170510 3.163000 3.159070 3.161540 3.171170 3.185550 3.201240 3.212900 3.220170 3.225060 3.218180 3.208000 3.208720 3.214720 3.225360 3.239690 3.252150 3.264570 3.267990 3.266880 3.266610 3.269120 3.274000 3.285520 3.297190 3.308820 3.313850 3.318670 3.323680 3.333100 3.342930 3.354620 3.376340 3.398050 3.419830 3.454500 3.492650 3.530800 3.559760 3.588290 3.616810 3.636900 3.654760 3.672610 3.690500 3.709690 3.728890 3.748370 3.769330 3.790280 3.785190 3.771670 3.758140 3.757190 3.760210 3.763240 3.771440 3.784620 3.797800 3.790220 3.774920 3.759630 3.750570 3.744280 3.737980 3.740810 3.748830 3.756860 3.749640 3.735130 3.720620 3.703140 3.682710 3.662270 3.642330 3.621530 3.600720 3.577860 3.554400 3.530940 3.508670 3.487180 3.465790 3.455200 3.444490 3.434290 3.417320 3.400140 3.380580 3.359740 3.338900 3.310910 3.273390 3.235860 3.200230 3.166290 3.144020 3.127190 3.112670 3.092650 3.071650 3.054010 3.038650 3.025090 3.011660 2.998820 2.995490 2.995490 3.003880 3.014000 3.022950 3.034030 3.047440 3.056640 3.072780 3.092680 3.109600 3.131180 3.161610 3.193260 -9999.0 -9999.0 -9999.0 -9999.0 -9999.0 -9999.0 -9999.0 -9999.0 -9999.0 -9999.0 -9999.0 -9999.0 -9999.0 -9999.0 -9999.0 -9999.0
-9999.0 -9999.0 4.600090 4.486570 4.360010 4.230850 4.115980 3.986370 3.823710 3.702810 3.610740 3.534640 3.476420 3.429270 3.386920 3.337630 3.318630 3.312610 3.316800 3.314160 3.302220 3.290550 3.281740 3.271120 3.259760 3.250200 3.242420 3.251890 3.262550 3.278120 3.296550 3.315660 3.325660 3.331270 3.326300 3.318210 3.321830 3.330970 3.344030 3.359750 3.372250 3.384470 3.388200 3.389160 3.389030 3.391120 3.394230 3.403650 3.415320 3.423490 3.429930 3.435680 3.438450 3.445560 3.454530 3.460700 3.478160 3.500110 3.523960 3.555080 3.592680 3.623100 3.652470 3.680990 3.709520 3.732310 3.750160 3.760410 3.774880 3.794080 3.807750 3.824440 3.845400 3.848480 3.843960 3.830430 3.826920 3.826180 3.829200 3.830350 3.835740 3.848870 3.844740 3.836650 3.821360 3.810270 3.801220 3.794930 3.790710 3.791840 3.799870 3.798200 3.790930 3.776430 3.764850 3.749600 3.729160 3.712320 3.693550 3.672710 3.651310 3.628730 3.605010 3.579630 3.556630 3.537440 3.527670 3.517230 3.509920 3.513300 3.498970 3.484570 3.469610 3.448710 3.427740 3.399960 3.362570 3.321340 3.279350 3.243420 3.208370 3.188440 3.167370 3.145310 3.122610 3.101470 3.084410 3.070520 3.065280 3.054690 3.034800 3.010900 2.993010 2.993010 2.993010 3.002270 3.011510 3.020140 3.028710 3.044930 3.067740 3.093830 3.122960 -9999.0 -9999.0 -9999.0 -9999.0 -9999.0 -9999.0 -9999.0 -9999.0 -9999.0 -9999.0 -9999.0 -9999.0 -9999.0 -9999.0 -9999.0 -9999.0 -9999.0
-9999.0 -9999.0 -9999.0 4.564710 4.460840 4.361710 4.262570 4.174190 4.054050 3.934260 3.837110 3.750990 3.691820 3.644940 3.600530 3.553600 3.526770 3.516720 3.512540 3.474910 3.454880 3.425290 3.401370 3.390970 3.378000 3.365000 3.361340 3.370590 3.380270 3.395310 3.416200 3.437660 3.450100 3.449600 3.449100 3.445720 3.450820 3.455920 3.467300 3.479800 3.492300 3.501960 3.505690 3.509420 3.511600 3.514710 3.517830 3.524340 3.532440 3.540540 3.547520 3.550250 3.552990 3.557510 3.563680 3.569850 3.580380 3.604240 3.628090 3.654530 3.684940 3.715350 3.745170 3.773700 3.802230 3.826930 3.837060 3.847190 3.858670 3.872150 3.885630 3.899500 3.901660 3.903820 3.903450 3.900340 3.897230 3.894960 3.896110 3.897260 3.897360 3.893190 3.889060 3.883540 3.872620 3.861700 3.852080 3.848030 3.843980 3.841740 3.839440 3.837150 3.832680 3.821230 3.809780 3.796570 3.779760 3.762950 3.744650 3.723240 3.701840 3.679030 3.653660 3.628280 3.609080 3.599320 3.589560 3.584980 3.588360 3.591750 3.582570 3.570490 3.558420 3.538030 3.517000 3.495290 3.452310 3.406460 3.362550 3.327680 3.293160 3.264740 3.239400 3.215870 3.185950 3.160480 3.134610 3.117190 3.108930 3.100110 3.090140 3.068840 3.038670 3.012130 2.993860 2.988500 2.988500 2.996180 3.005270 3.018840 3.042070 -9999.0 -9999.0 -9999.0 -9999.0 -9999.0 -9999.0 -9999.0 -9999.0 -9999.0 -9999.0 -9999.0 -9999.0 -9999.0 -9999.0 -9999.0 -9999.0 -9999.0 -9999.0 -9999.0
-9999.0 -9999.0 -9999.0 -9999.0 -9999.0 4.508290 4.409150 4.319570 4.235130 4.154420 4.066330 3.969940 3.919500 3.871910 3.821790 3.781600 3.751260 3.720040 3.681890 3.643750 3.605260 3.574660 3.543980 3.519670 3.507040 3.494410 3.489920 3.498730 3.507540 3.521280 3.543030 3.564780 3.569760 3.569360 3.568950 3.570300 3.575080 3.579880 3.586790 3.599260 3.610930 3.616230 3.619890 3.623570 3.627290 3.630550 3.633690 3.637050 3.645150 3.652340 3.652310 3.654590 3.656860 3.659200 3.665070 3.671420 3.679350 3.703260 3.724960 3.740480 3.771040 3.799520 3.819820 3.848260 3.875150 3.893950 3.903660 3.913470 3.923650 3.937160 3.948820 3.951990 3.954150 3.956170 3.957420 3.953930 3.950340 3.946250 3.946910 3.946860 3.944490 3.940390 3.935050 3.926260 3.915540 3.904040 3.890450 3.886330 3.881970 3.876910 3.874540 3.871690 3.867460 3.856130 3.844720 3.832430 3.815770 3.798640 3.779900 3.758290 3.733680 3.705390 3.679730 3.654540 3.634040 3.625380 3.620780 3.622110 3.627050 3.638030 3.637690 3.625950 3.621270 3.606530 3.585540 3.571150 3.532110 3.486490 3.454190 3.419620 3.384710 3.342740 3.316780 3.286220 3.254930 3.224360 3.193980 3.177480 3.167550 3.155270 3.137990 3.118340 3.090560 3.058440 3.031910 3.012300 2.998040 2.983380 2.985600 -9999.0 -9999.0 -9999.0 -9999.0 -9999.0 -9999.0 -9999.0 -9999.0 -9999.0 -9999.0 -9999.0 -9999.0 -9999.0 -9999.0 -9999.0 -9999.0 -9999.0 -9999.0 -9999.0 -9999.0 -9999.0
-9999.0 -9999.0 -9999.0 -9999.0 -9999.0 -9999.0 4.555740 4.465840 4.388980 4.311730 4.228180 4.153840 4.120250 4.070120 4.019090 3.969270 3.919440 3.882330 3.843050 3.802820 3.762590 3.730020 3.696270 3.664690 3.652060 3.641250 3.631320 3.640130 3.648750 3.657740 3.679490 3.685230 3.690860 3.690740 3.690910 3.691070 3.695830 3.701160 3.706480 3.717790 3.723450 3.729100 3.733060 3.736850 3.740640 3.743790 3.746190 3.748590 3.755010 3.754610 3.754210 3.756130 3.758300 3.760460 3.766110 3.774040 3.781970 3.798880 3.813270 3.827650 3.853560 3.873080 3.892600 3.917720 3.936840 3.955960 3.967860 3.978040 3.988210 3.997630 4.000820 4.004010 4.006100 4.007400 4.008700 4.005930 4.001840 3.997750 3.996120 3.993740 3.991370 3.985770 3.977050 3.968330 3.956570 3.942280 3.928000 3.922500 3.917290 3.912090 3.908590 3.904630 3.900660 3.890240 3.878640 3.866910 3.849590 3.831520 3.813330 3.788000 3.758960 3.730070 3.705010 3.680230 3.656990 3.653580 3.652030 3.652590 3.664890 3.679870 3.684200 3.680570 3.679240 3.668520 3.655330 3.642340 3.611220 3.580250 3.549270 3.513230 3.468230 3.423230 3.393830 3.362690 3.331480 3.302590 3.278700 3.259010 3.243970 3.226500 3.205330 3.178900 3.146520 3.109210 3.079280 3.055050 3.037550 3.020960 -9999.0 -9999.0 -9999.0 -9999.0 -9999.0 -9999.0 -9999.0 -9999.0 -9999.0 -9999.0 -9999.0 -9999.0 -9999.0 -9999.0 -9999.0 -9999.0 -9999.0 -9999.0 -9999.0 -9999.0 -9999.0 -9999.0
-9999.0 -9999.0 -9999.0 -9999.0 -9999.0 -9999.0 -9999.0 -9999.0 4.543110 4.466250 4.385480 4.326330 4.292740 4.259150 4.213960 4.156740 4.099510 4.043520 3.998700 3.958650 3.914950 3.876750 3.844360 3.811210 3.794190 3.783920 3.773640 3.776620 3.784210 3.791620 3.793170 3.798360 3.802960 3.803530 3.804580 3.806370 3.812720 3.817580 3.821340 3.821090 3.825320 3.829350 3.832680 3.836220 3.841170 3.846140 3.849650 3.852260 3.851770 3.851140 3.849790 3.848480 3.849460 3.852280 3.860330 3.868080 3.874900 3.886260 3.900740 3.908360 3.920830 3.940320 3.957590 3.973410 3.991960 4.010430 4.024470 4.034540 4.039700 4.042190 4.046020 4.046120 4.045280 4.046330 4.049290 4.049170 4.044310 4.040360 4.037890 4.035470 4.026150 4.016690 4.009080 4.001770 3.989110 3.974800 3.959760 3.950720 3.944920 3.936230 3.929350 3.925240 3.922440 3.913300 3.902680 3.896890 3.880360 3.862260 3.834810 3.804430 3.774680 3.744240 3.718350 3.693550 3.672070 3.671990 3.671910 3.672470 3.687600 3.702730 3.719180 3.716300 3.713420 3.722310 3.709300 3.696840 3.677320 3.649050 3.622220 3.582780 3.536860 3.500500 3.470160 3.439040 3.409970 3.386640 3.363300 3.343870 3.324650 3.306440 3.285170 3.249290 3.213970 3.173690 3.133460 3.106350 -9999.0 -9999.0 -9999.0 -9999.0 -9999.0 -9999.0 -9999.0 -9999.0 -9999.0 -9999.0 -9999.0 -9999.0 -9999.0 -9999.0 -9999.0 -9999.0 -9999.0 -9999.0 -9999.0 -9999.0 -9999.0 -9999.0 -9999.0 -9999.0
-9999.0 -9999.0 -9999.0 -9999.0 -9999.0 -9999.0 -9999.0 -9999.0 -9999.0 -9999.0 4.542790 4.498830 4.453550 4.407100 4.362010 4.318060 4.260840 4.206320 4.152480 4.107150 4.057240 4.017170 3.982510 3.942270 3.917170 3.906900 3.896700 3.892530 3.900130 3.895810 3.893170 3.897020 3.896590 3.897000 3.900170 3.910430 3.918170 3.921680 3.914230 3.909840 3.914010 3.917100 3.920280 3.925750 3.933600 3.938900 3.940900 3.940760 3.940380 3.938830 3.934340 3.931270 3.933390 3.941710 3.949930 3.956460 3.962090 3.973110 3.977470 3.973720 3.981740 3.998430 4.010190 4.023980 4.042470 4.060780 4.077060 4.080400 4.080250 4.082690 4.080860 4.075720 4.073870 4.077390 4.083950 4.086850 4.082800 4.080260 4.077760 4.066170 4.052090 4.042700 4.035540 4.028510 4.016930 4.001670 3.985700 3.974040 3.965480 3.953750 3.945070 3.942670 3.940430 3.931150 3.927170 3.923860 3.909460 3.880110 3.846850 3.815560 3.785160 3.754420 3.727420 3.704930 3.683680 3.683180 3.680290 3.677510 3.692640 3.713570 3.734520 3.734930 3.749050 3.764310 3.754070 3.743140 3.724300 3.698230 3.673990 3.638530 3.603420 3.575960 3.546390 3.517840 3.489640 3.466310 3.453650 3.443430 3.424210 3.408130 3.378370 3.327370 3.290350 3.244800 -9999.0 -9999.0 -9999.0 -9999.0 -9999.0 -9999.0 -9999.0 -9999.0 -9999.0 -9999.0 -9999.0 -9999.0 -9999.0 -9999.0 -9999.0 -9999.0 -9999.0 -9999.0 -9999.0 -9999.0 -9999.0 -9999.0 -9999.0 -9999.0 -9999.0 -9999.0
-9999.0 -9999.0 -9999.0 -9999.0 -9999.0 -9999.0 -9999.0 -9999.0 -9999.0 -9999.0 -9999.0 -9999.0 4.594260 4.547800 4.502700 4.458800 4.412600 4.356290 4.301100 4.250520 4.199940 4.153820 4.113580 4.073330 4.040160 4.029960 4.019760 4.009560 4.004570 3.993540 3.983530 3.984730 3.989430 3.993980 4.004230 4.014490 4.022020 4.014570 4.007120 3.999340 3.996250 3.994090 3.996310 4.010010 4.022380 4.028470 4.028510 4.028550 4.026840 4.021630 4.016420 4.011710 4.014780 4.018100 4.021000 4.028120 4.040780 4.044360 4.040820 4.037270 4.036600 4.047910 4.059220 4.070140 4.083630 4.097400 4.104280 4.106340 4.112360 4.111550 4.106640 4.101720 4.100500 4.106420 4.112330 4.120470 4.115710 4.110310 4.096420 4.081540 4.071690 4.064120 4.057440 4.050770 4.040390 4.024130 4.007860 3.989720 3.975090 3.960450 3.954210 3.953870 3.954280 3.951800 3.948750 3.945700 3.926150 3.892950 3.859750 3.821410 3.788500 3.755590 3.730690 3.710140 3.690760 3.688090 3.685420 3.683310 3.699500 3.720180 3.740870 3.761170 3.772920 3.783030 3.779960 3.775620 3.763900 3.739700 3.715490 3.689080 3.654350 3.619630 3.599820 3.582340 3.566880 3.558420 3.549960 3.541450 3.529340 3.516880 3.480270 3.425720 3.371160 -9999.0 -9999.0 -9999.0 -9999.0 -9999.0 -9999.0 -9999.0 -9999.0 -9999.0 -9999.0 -9999.0 -9999.0 -9999.0 -9999.0 -9999.0 -9999.0 -9999.0 -9999.0 -9999.0 -9999.0 -9999.0 -9999.0 -9999.0 -9999.0 -9999.0 -9999.0 -9999.0
-9999.0 -9999.0 -9999.0 -9999.0 -9999.0 -9999.0 -9999.0 -9999.0 -9999.0 -9999.0 -9999.0 -9999.0 -9999.0 -9999.0 4.641790 4.595970 4.550140 4.498260 4.445720 4.386750 4.308630 4.238800 4.200700 4.166950 4.137850 4.120730 4.110250 4.091380 4.071670 4.060630 4.053720 4.049600 4.048510 4.054740 4.065040 4.077380 4.091110 4.090200 4.082040 4.066070 4.050550 4.048390 4.058460 4.073490 4.087580 4.095510 4.095550 4.089010 4.080340 4.074260 4.070100 4.071270 4.072640 4.075950 4.078280 4.080390 4.086770 4.092180 4.088640 4.077860 4.066300 4.073790 4.084570 4.094060 4.104310 4.118080 4.117030 4.114760 4.116560 4.116650 4.111750 4.107140 4.102530 4.107570 4.116270 4.128880 4.136930 4.130940 4.109600 4.088270 4.073520 4.065730 4.059300 4.054110 4.048590 4.032320 4.013350 3.992130 3.973320 3.960740 3.958900 3.957050 3.956760 3.954500 3.951570 3.948880 3.941600 3.908400 3.867360 3.822960 3.784180 3.754280 3.730950 3.707620 3.687100 3.683250 3.682340 3.683230 3.690430 3.711120 3.738800 3.767320 3.784720 3.788820 3.785900 3.782980 3.775510 3.751310 3.727270 3.703260 3.673000 3.646110 3.630320 3.621850 3.613370 3.604900 3.596450 3.603770 3.611200 3.605050 3.567060 -9999.0 -9999.0 -9999.0 -9999.0 -9999.0 -9999.0 -9999.0 -9999.0 -9999.0 -9999.0 -9999.0 -9999.0 -9999.0 -9999.0 -9999.0 -9999.0 -9999.0 -9999.0 -9999.0 -9999.0 -9999.0 -9999.0 -9999.0 -9999.0 -9999.0 -9999.0 -9999.0 -9999.0 -9999.0
-9999.0 -9999.0 -9999.0 -9999.0 -9999.0 -9999.0 -9999.0 -9999.0 -9999.0 -9999.0 -9999.0 -9999.0 -9999.0 -9999.0 -9999.0 -9999.0 -9999.0 4.637670 4.559560 4.481450 4.403340 4.325230 4.294220 4.265130 4.236030 4.206960 4.187050 4.167150 4.147240 4.128030 4.123910 4.119780 4.115660 4.113060 4.126800 4.140530 4.154270 4.164230 4.148260 4.132300 4.116330 4.105590 4.120620 4.135650 4.150670 4.160720 4.152050 4.143370 4.134690 4.128490 4.129660 4.130830 4.132000 4.133450 4.135560 4.137670 4.139780 4.137320 4.125760 4.114200 4.102630 4.098990 4.108490 4.117980 4.127480 4.132060 4.129790 4.127510 4.125240 4.121900 4.117290 4.112680 4.108070 4.112070 4.124680 4.137290 4.149900 4.144120 4.122790 4.101460 4.080130 4.068210 4.063020 4.057820 4.052630 4.037420 4.016200 3.994970 3.973750 3.965430 3.963590 3.961740 3.959900 3.957460 3.954770 3.952090 3.949410 3.915470 3.871070 3.826670 3.782270 -9999.0 -9999.0 -9999.0 -9999.0 -9999.0 -9999.0 -9999.0 -9999.0 -9999.0 -9999.0 -9999.0 -9999.0 -9999.0 -9999.0 -9999.0 -9999.0 -9999.0 -9999.0 -9999.0 -9999.0 -9999.0 -9999.0 -9999.0 -9999.0 -9999.0 -9999.0 -9999.0 -9999.0 -9999.0 -9999.0 -9999.0 -9999.0 -9999.0 -9999.0 -9999.0 -9999.0 -9999.0 -9999.0 -9999.0 -9999.0 -9999.0 -9999.0 -9999.0 -9999.0 -9999.0 -9999.0 -9999.0 -9999.0 -9999.0 -9999.0 -9999.0 -9999.0 -9999.0 -9999.0 -9999.0 -9999.0 -9999.0 -9999.0 -9999.0
-9999.0 -9999.0 -9999.0 -9999.0 -9999.0 -9999.0 -9999.0 -9999.0 -9999.0 -9999.0 -9999.0 -9999.0 -9999.0 -9999.0 -9999.0 -9999.0 -9999.0 -9999.0 -9999.0 -9999.0 -9999.0 -9999.0 -9999.0 -9999.0 -9999.0 -9999.0 -9999.0 -9999.0 -9999.0 -9999.0 -9999.0 -9999.0 -9999.0 -9999.0 -9999.0 -9999.0 -9999.0 -9999.0 -9999.0 -9999.0 -9999.0 -9999.0 -9999.0 -9999.0 -9999.0 -9999.0 -9999.0 -9999.0 -9999.0 -9999.0 -9999.0 -9999.0 -9999.0 -9999.0 -9999.0 -9999.0 -9999.0 -9999.0 -9999.0 -9999.0 -9999.0 -9999.0 -9999.0 -9999.0 -9999.0 -9999.0 -9999.0 -9999.0 -9999.0 -9999.0 -9999.0 -9999.0 -9999.0 -9999.0 -9999.0 -9999.0 -9999.0 -9999.0 -9999.0 -9999.0 -9999.0 -9999.0 -9999.0 -9999.0 -9999.0 -9999.0 -9999.0 -9999.0 -9999.0 -9999.0 -9999.0 -9999.0 -9999.0 -9999.0 -9999.0 -9999.0 -9999.0 -9999.0 -9999.0 -9999.0 -9999.0 -9999.0 -9999.0 -9999.0 -9999.0 -9999.0 -9999.0 -9999.0 -9999.0 -9999.0 -9999.0 -9999.0 -9999.0 -9999.0 -9999.0 -9999.0 -9999.0 -9999.0 -9999.0 -9999.0 -9999.0 -9999.0 -9999.0 -9999.0 -9999.0 -9999.0 -9999.0 -9999.0 -9999.0 -9999.0 -9999.0 -9999.0 -9999.0 -9999.0 -9999.0 -9999.0 -9999.0 -9999.0 -9999.0 -9999.0 -9999.0 -9999.0 -9999.0 -9999.0 -9999.0 -9999.0 -9999.0 -9999.0 -9999.0 -9999.0 -9999.0 -9999.0 -9999.0 -9999.0 -9999.0 -9999.0 -9999.0 -9999.0 -9999.0 -9999.0